-1.094204044342041016e+01 1.377408790588378906e+01 4.026329803466796875e+01
-1.394941043853759766e+01 1.321642112731933594e+01 3.929769134521484375e+01
-1.146061801910400391e+01 1.352058982849121094e+01 4.043517684936523438e+01
-8.609798431396484375e+00 1.376376533508300781e+01 4.140614318847656250e+01
-1.236131095886230469e+01 1.332237815856933594e+01 4.007942581176757812e+01
-8.206001281738281250e+00 1.367359161376953125e+01 4.137306976318359375e+01
-1.193672180175781250e+01 1.337422657012939453e+01 4.046849060058593750e+01
-7.740649700164794922e+00 1.376180362701416016e+01 4.188555526733398438e+01
-1.009825229644775391e+01 1.331859874725341797e+01 4.126716995239257812e+01
-1.053203868865966797e+01 1.326219081878662109e+01 4.109246444702148438e+01
-8.930294036865234375e+00 1.332188415527343750e+01 4.177974700927734375e+01
-1.388607311248779297e+01 1.268424129486083984e+01 3.977936553955078125e+01
-7.649224758148193359e+00 1.324145030975341797e+01 4.230029296875000000e+01
-9.334279060363769531e+00 1.307747745513916016e+01 4.177241897583007812e+01
-9.133993148803710938e+00 1.305715179443359375e+01 4.196753692626953125e+01
-1.291696834564208984e+01 1.247243309020996094e+01 4.033320617675781250e+01
-9.578107833862304688e+00 1.286526966094970703e+01 4.213764190673828125e+01
-1.001622295379638672e+01 1.280287837982177734e+01 4.193565750122070312e+01
-1.125141429901123047e+01 1.255997562408447266e+01 4.139992904663085938e+01
-9.155084609985351562e+00 1.278769207000732422e+01 4.241565704345703125e+01
-9.645696640014648438e+00 1.268035411834716797e+01 4.206193161010742188e+01
-1.064156150817871094e+01 1.260832691192626953e+01 4.182357025146484375e+01
-1.342580223083496094e+01 1.205312252044677734e+01 4.024364471435546875e+01
-9.427021980285644531e+00 1.254917526245117188e+01 4.216644668579101562e+01
-6.413749694824218750e+00 1.262654876708984375e+01 4.326790237426757812e+01
-1.030427646636962891e+01 1.220287990570068359e+01 4.210227584838867188e+01
-1.317431545257568359e+01 1.178658103942871094e+01 4.066825103759765625e+01
-7.087697505950927734e+00 1.247722244262695312e+01 4.333884048461914062e+01
-9.618288993835449219e+00 1.211756896972656250e+01 4.266067504882812500e+01
-1.050041198730468750e+01 1.199649143218994141e+01 4.223666381835937500e+01
-1.076857376098632812e+01 1.193202304840087891e+01 4.201005172729492188e+01
-7.487860202789306641e+00 1.219271087646484375e+01 4.322064208984375000e+01
-1.015552520751953125e+01 1.198865318298339844e+01 4.249769210815429688e+01
-1.103136348724365234e+01 1.170442962646484375e+01 4.177961349487304688e+01
-1.222799015045166016e+01 1.161024665832519531e+01 4.143793487548828125e+01
-1.299860954284667969e+01 1.142535114288330078e+01 4.135371017456054688e+01
-6.572163581848144531e+00 1.178040218353271484e+01 4.324301528930664062e+01
-1.282097053527832031e+01 1.123864364624023438e+01 4.154955291748046875e+01
-5.733152389526367188e+00 1.168228816986083984e+01 4.380895233154296875e+01
-5.897565364837646484e+00 1.167488479614257812e+01 4.378303146362304688e+01
-8.653485298156738281e+00 1.151509380340576172e+01 4.318679428100585938e+01
-5.490606784820556641e+00 1.161922359466552734e+01 4.388924026489257812e+01
-8.514271736145019531e+00 1.130113124847412109e+01 4.332821273803710938e+01
-8.220271110534667969e+00 1.119036865234375000e+01 4.355143737792968750e+01
-5.467990398406982422e+00 1.132768249511718750e+01 4.441528701782226562e+01
-8.199254989624023438e+00 1.090695667266845703e+01 4.342705154418945312e+01
-5.907419204711914062e+00 1.109647178649902344e+01 4.452940368652343750e+01
-9.807937622070312500e+00 1.066601276397705078e+01 4.313888931274414062e+01
-5.022248744964599609e+00 1.104548263549804688e+01 4.501376724243164062e+01
-6.886202335357666016e+00 1.084690952301025391e+01 4.422373199462890625e+01
-5.683087348937988281e+00 1.090410518646240234e+01 4.480273818969726562e+01
-6.357676982879638672e+00 1.088150691986083984e+01 4.471840667724609375e+01
-6.886048316955566406e+00 1.067705345153808594e+01 4.423127746582031250e+01
-9.845473289489746094e+00 1.037258815765380859e+01 4.331063079833984375e+01
-5.823940753936767578e+00 1.066530704498291016e+01 4.527022171020507812e+01
-6.249002456665039062e+00 1.064570713043212891e+01 4.518871688842773438e+01
-8.189327239990234375e+00 1.034580898284912109e+01 4.425775909423828125e+01
-4.459292411804199219e+00 1.045643043518066406e+01 4.548398590087890625e+01
-5.850721359252929688e+00 1.045450592041015625e+01 4.550145339965820312e+01
-6.250185966491699219e+00 1.038564586639404297e+01 4.519969558715820312e+01
-9.650670051574707031e+00 1.001241970062255859e+01 4.356899261474609375e+01
-8.511579513549804688e+00 1.006823444366455078e+01 4.417290115356445312e+01
-1.057370185852050781e+01 9.750432968139648438e+00 4.351610183715820312e+01
-4.128865242004394531e+00 1.015108871459960938e+01 4.569108200073242188e+01
-9.023859024047851562e+00 9.814643859863281250e+00 4.419208908081054688e+01
-7.928970336914062500e+00 9.848449707031250000e+00 4.472410964965820312e+01
-4.303503036499023438e+00 9.975033760070800781e+00 4.569948577880859375e+01
-1.122176074981689453e+01 9.406306266784667969e+00 4.309771728515625000e+01
-7.430089950561523438e+00 9.728057861328125000e+00 4.537430953979492188e+01
-7.596140384674072266e+00 9.540519714355468750e+00 4.531800460815429688e+01
-8.594565391540527344e+00 9.304789543151855469e+00 4.461692810058593750e+01
-7.358276367187500000e+00 9.309184074401855469e+00 4.547421264648437500e+01
-8.458600997924804688e+00 9.171216011047363281e+00 4.480751037597656250e+01
-6.854266166687011719e+00 9.195678710937500000e+00 4.623337173461914062e+01
-8.560725212097167969e+00 8.755104064941406250e+00 4.490224838256835938e+01
-8.726792335510253906e+00 8.747694015502929688e+00 4.486460876464843750e+01
-8.185041427612304688e+00 8.730123519897460938e+00 4.522257995605468750e+01
-7.975741386413574219e+00 8.522742271423339844e+00 4.551473236083984375e+01
-5.640958309173583984e+00 8.629409790039062500e+00 4.656198120117187500e+01
-5.242446899414062500e+00 8.626798629760742188e+00 4.704312133789062500e+01
-9.682643890380859375e+00 8.295421600341796875e+00 4.521774291992187500e+01
-1.076874852180480957e+00 8.689669609069824219e+00 4.789411926269531250e+01
-1.531602859497070312e+00 8.550516128540039062e+00 4.763525772094726562e+01
-4.379316806793212891e+00 8.442489624023437500e+00 4.754348754882812500e+01
-1.013272380828857422e+01 7.889790534973144531e+00 4.491205978393554688e+01
-4.623320102691650391e+00 8.199547767639160156e+00 4.720120239257812500e+01
-7.875526428222656250e+00 7.894126892089843750e+00 4.596041107177734375e+01
-2.562922239303588867e+00 8.142836570739746094e+00 4.794643402099609375e+01
-3.283794641494750977e+00 7.998006343841552734e+00 4.763503646850585938e+01
-6.795767307281494141e+00 7.721589088439941406e+00 4.707044601440429688e+01
-2.208756446838378906e+00 7.739406108856201172e+00 4.832734298706054688e+01
-2.584079265594482422e+00 7.745276451110839844e+00 4.836485671997070312e+01
-5.995538234710693359e+00 7.681532859802246094e+00 4.796184158325195312e+01
-7.402076244354248047e+00 7.238186836242675781e+00 4.689833068847656250e+01
-6.787640094757080078e+00 6.987495422363281250e+00 4.766030120849609375e+01
-4.120542049407958984e+00 6.786917686462402344e+00 4.889082717895507812e+01
-9.364265441894531250e+00 1.129966640472412109e+01 4.300446701049804688e+01
-9.128004074096679688e+00 1.563412380218505859e+01 3.952068710327148438e+01
-1.003691387176513672e+01 1.548256683349609375e+01 3.913886260986328125e+01
-1.057563877105712891e+01 1.525447368621826172e+01 3.879172515869140625e+01
-1.332187080383300781e+01 1.500592136383056641e+01 3.816224288940429688e+01
-1.102146339416503906e+01 1.516203212738037109e+01 3.878811264038085938e+01
-1.260683536529541016e+01 1.501289558410644531e+01 3.840560150146484375e+01
-9.471167564392089844e+00 1.532289981842041016e+01 3.943004608154296875e+01
-9.436129570007324219e+00 1.523291015625000000e+01 3.967412948608398438e+01
-1.029753208160400391e+01 1.496380519866943359e+01 3.945132064819335938e+01
-1.474865913391113281e+01 1.448409938812255859e+01 3.818898010253906250e+01
-9.780110359191894531e+00 1.492253684997558594e+01 3.958629989624023438e+01
-1.519930744171142578e+01 1.423995780944824219e+01 3.778020477294921875e+01
-9.225353240966796875e+00 1.497175407409667969e+01 3.996211242675781250e+01
-1.233957672119140625e+01 1.459920406341552734e+01 3.896863555908203125e+01
-9.565976142883300781e+00 1.483560752868652344e+01 3.984809112548828125e+01
-8.588710784912109375e+00 1.496464347839355469e+01 4.044220352172851562e+01
-1.478545951843261719e+01 1.407652473449707031e+01 3.828815460205078125e+01
-8.330142021179199219e+00 1.481289005279541016e+01 4.053856658935546875e+01
-1.047095012664794922e+01 1.434403705596923828e+01 3.976697921752929688e+01
-8.181610107421875000e+00 1.460574817657470703e+01 4.075176239013671875e+01
-9.326484680175781250e+00 1.438702583312988281e+01 4.040735626220703125e+01
-8.395414352416992188e+00 1.417645549774169922e+01 4.088046646118164062e+01
-7.896668434143066406e+00 1.420503044128417969e+01 4.123740386962890625e+01
-9.579221725463867188e+00 1.401362323760986328e+01 4.068645858764648438e+01
-1.056019115447998047e+01 1.384444236755371094e+01 4.046854782104492188e+01
-1.213519001007080078e+01 1.361036777496337891e+01 3.978424072265625000e+01
-1.193475723266601562e+01 1.360441303253173828e+01 4.003809738159179688e+01
-8.316821098327636719e+00 1.398647403717041016e+01 4.144540405273437500e+01
-1.433466053009033203e+01 1.315689945220947266e+01 3.898787689208984375e+01
-8.680137634277343750e+00 1.376406574249267578e+01 4.135860824584960938e+01
-1.237070846557617188e+01 1.329751014709472656e+01 3.995747756958007812e+01
-8.205976486206054688e+00 1.367355346679687500e+01 4.137294387817382812e+01
-7.731683254241943359e+00 1.375720024108886719e+01 4.192012023925781250e+01
-1.025002193450927734e+01 1.349084663391113281e+01 4.111102676391601562e+01
-1.075967884063720703e+01 1.331616783142089844e+01 4.086633682250976562e+01
-8.579257965087890625e+00 1.352288150787353516e+01 4.180098724365234375e+01
-1.009680080413818359e+01 1.325224590301513672e+01 4.125909805297851562e+01
-7.314411640167236328e+00 1.349350547790527344e+01 4.231400680541992188e+01
-1.388603305816650391e+01 1.268420600891113281e+01 3.977924728393554688e+01
-7.068671703338623047e+00 1.348427295684814453e+01 4.259289932250976562e+01
-1.104342174530029297e+01 1.295021343231201172e+01 4.121071624755859375e+01
-9.207375526428222656e+00 1.300384330749511719e+01 4.200505447387695312e+01
-1.296850299835205078e+01 1.249295711517333984e+01 4.034950637817382812e+01
-1.320088672637939453e+01 1.244837570190429688e+01 4.020706558227539062e+01
-9.625585556030273438e+00 1.284642696380615234e+01 4.212870025634765625e+01
-9.204257965087890625e+00 1.273813533782958984e+01 4.241445922851562500e+01
-1.340829658508300781e+01 1.209642601013183594e+01 4.028383255004882812e+01
-9.434357643127441406e+00 1.255358028411865234e+01 4.212644195556640625e+01
-9.940966606140136719e+00 1.245406913757324219e+01 4.179295730590820312e+01
-6.618498802185058594e+00 1.267136001586914062e+01 4.285130691528320312e+01
-1.055497932434082031e+01 1.239549541473388672e+01 4.192396545410156250e+01
-9.889302253723144531e+00 1.231680488586425781e+01 4.198762130737304688e+01
-1.322133159637451172e+01 1.171141815185546875e+01 4.057163238525390625e+01
-1.085119247436523438e+01 1.191625881195068359e+01 4.195524597167968750e+01
-7.615873336791992188e+00 1.224856185913085938e+01 4.347924804687500000e+01
-1.011564064025878906e+01 1.198265743255615234e+01 4.253395843505859375e+01
-1.055271816253662109e+01 1.192056179046630859e+01 4.231547164916992188e+01
-1.265362167358398438e+01 1.168211936950683594e+01 4.146409988403320312e+01
-9.455996513366699219e+00 1.172450351715087891e+01 4.267314910888671875e+01
-1.091540718078613281e+01 1.159419822692871094e+01 4.220166015625000000e+01
-1.051486873626708984e+01 1.159594345092773438e+01 4.257041549682617188e+01
-5.853527069091796875e+00 1.173857307434082031e+01 4.383040618896484375e+01
-5.570085525512695312e+00 1.157760238647460938e+01 4.399100494384765625e+01
-9.398298263549804688e+00 1.127789688110351562e+01 4.285918426513671875e+01
-1.211059093475341797e+01 1.102736949920654297e+01 4.189948272705078125e+01
-8.498918533325195312e+00 1.130293655395507812e+01 4.333505630493164062e+01
-9.083594322204589844e+00 1.117976856231689453e+01 4.324847793579101562e+01
-5.522057533264160156e+00 1.128383636474609375e+01 4.444775009155273438e+01
-6.208973407745361328e+00 1.122702121734619141e+01 4.422942733764648438e+01
-1.228019618988037109e+01 1.052116107940673828e+01 4.182580184936523438e+01
-5.363188743591308594e+00 1.117454719543457031e+01 4.483683395385742188e+01
-8.312511444091796875e+00 1.081701850891113281e+01 4.340316390991210938e+01
-9.395123481750488281e+00 1.069158363342285156e+01 4.330949020385742188e+01
-9.773996353149414062e+00 1.066703701019287109e+01 4.321095657348632812e+01
-5.079926490783691406e+00 1.102558040618896484e+01 4.507723617553710938e+01
-6.374125003814697266e+00 1.082766819000244141e+01 4.471012878417968750e+01
-8.300787925720214844e+00 1.052451992034912109e+01 4.386243057250976562e+01
-9.857946395874023438e+00 1.034935665130615234e+01 4.314323425292968750e+01
-5.692631244659423828e+00 1.069876289367675781e+01 4.503776931762695312e+01
-1.930616950988769531e+01 9.714760780334472656e+00 4.089025878906250000e+01
-6.331363677978515625e+00 1.061946010589599609e+01 4.515110778808593750e+01
-8.751283645629882812e+00 1.025284576416015625e+01 4.357473373413085938e+01
-1.179807281494140625e+01 1.000711154937744141e+01 4.252958297729492188e+01
-8.262290000915527344e+00 1.029691123962402344e+01 4.419660186767578125e+01
-1.132012462615966797e+01 1.000708389282226562e+01 4.294887161254882812e+01
-4.490285396575927734e+00 1.048546123504638672e+01 4.545976257324218750e+01
-4.783330917358398438e+00 1.043776702880859375e+01 4.525556564331054688e+01
-8.014992713928222656e+00 1.027054214477539062e+01 4.452600479125976562e+01
-8.543201446533203125e+00 1.006235885620117188e+01 4.407244873046875000e+01
-9.625526428222656250e+00 9.918873786926269531e+00 4.345450973510742188e+01
-5.150048255920410156e+00 1.012419128417968750e+01 4.574392700195312500e+01
-9.067299842834472656e+00 9.771476745605468750e+00 4.415070343017578125e+01
-4.096025943756103516e+00 1.001999378204345703e+01 4.574195098876953125e+01
-1.125090217590332031e+01 9.435682296752929688e+00 4.307814788818359375e+01
-7.683395385742187500e+00 9.753191947937011719e+00 4.500237274169921875e+01
-7.430085659027099609e+00 9.728054046630859375e+00 4.537429046630859375e+01
-7.984077930450439453e+00 9.531206130981445312e+00 4.494532394409179688e+01
-9.107530593872070312e+00 9.402668952941894531e+00 4.434632110595703125e+01
-8.622780799865722656e+00 9.330328941345214844e+00 4.448991012573242188e+01
-1.067119121551513672e+01 9.224567413330078125e+00 4.397807312011718750e+01
-1.103953742980957031e+01 9.109099388122558594e+00 4.343195343017578125e+01
-8.461890220642089844e+00 9.173546791076660156e+00 4.473466491699218750e+01
-1.021558666229248047e+01 8.952010154724121094e+00 4.465411376953125000e+01
-6.903589725494384766e+00 9.130364418029785156e+00 4.608413696289062500e+01
-7.281189441680908203e+00 9.068371772766113281e+00 4.577188110351562500e+01
-6.585843563079833984e+00 9.026528358459472656e+00 4.609919357299804688e+01
-4.606125831604003906e+00 8.916895866394042969e+00 4.664991378784179688e+01
-8.156208992004394531e+00 8.667831420898437500e+00 4.535513687133789062e+01
-1.055360603332519531e+01 8.476950645446777344e+00 4.434413146972656250e+01
-3.578652620315551758e+00 8.937457084655761719e+00 4.732596969604492188e+01
-3.150505781173706055e+00 8.858005523681640625e+00 4.748906707763671875e+01
-1.763792228698730469e+01 3.719562768936157227e+00 4.532866668701171875e+01
-1.005753898620605469e+01 8.369766235351562500e+00 4.486747741699218750e+01
-9.620744705200195312e+00 8.337844848632812500e+00 4.525929260253906250e+01
-1.059019327163696289e+00 8.711532592773437500e+00 4.791183090209960938e+01
-1.605196714401245117e+00 8.549968719482421875e+00 4.763215637207031250e+01
-5.508139610290527344e+00 8.434377670288085938e+00 4.698702621459960938e+01
-6.033137798309326172e+00 8.406358718872070312e+00 4.683070373535156250e+01
-8.116387367248535156e+00 8.207047462463378906e+00 4.572324371337890625e+01
-3.800929307937622070e+00 8.402704238891601562e+00 4.742020416259765625e+01
-7.937646865844726562e+00 8.133955955505371094e+00 4.590737915039062500e+01
-5.403031349182128906e+00 5.721919536590576172e+00 4.899967193603515625e+01
-5.789897918701171875e+00 5.766895294189453125e+00 4.841570281982421875e+01
-6.081432342529296875e+00 8.144823074340820312e+00 4.720705413818359375e+01
-2.174713373184204102e+00 8.166946411132812500e+00 4.797986984252929688e+01
-2.614239692687988281e+00 8.149073600769042969e+00 4.787479019165039062e+01
-2.934401273727416992e+00 8.108567237854003906e+00 4.763298416137695312e+01
-5.254239559173583984e+00 6.135441303253173828e+00 4.866496658325195312e+01
-7.817154884338378906e+00 7.800205707550048828e+00 4.582696914672851562e+01
-6.307849884033203125e+00 6.396563529968261719e+00 4.807204055786132812e+01
-5.894293785095214844e+00 6.430871963500976562e+00 4.832576370239257812e+01
-5.663367271423339844e+00 6.422468662261962891e+00 4.825998306274414062e+01
-9.151715278625488281e+00 7.738445281982421875e+00 4.607471084594726562e+01
-6.904180526733398438e+00 6.552506446838378906e+00 4.758898925781250000e+01
-4.141722679138183594e+00 6.733154296875000000e+00 4.891148757934570312e+01
-8.745030403137207031e+00 6.631173610687255859e+00 4.733618927001953125e+01
-6.828475475311279297e+00 7.680993080139160156e+00 4.704510116577148438e+01
-7.316565513610839844e+00 7.622066497802734375e+00 4.668732452392578125e+01
-2.181754589080810547e+00 7.749645709991455078e+00 4.815999603271484375e+01
-3.681757926940917969e+00 7.067825794219970703e+00 4.887683868408203125e+01
-6.795054435729980469e+00 6.994868755340576172e+00 4.758574295043945312e+01
-3.301128864288330078e+00 7.756263256072998047e+00 4.820284271240234375e+01
-4.877485275268554688e+00 7.210348606109619141e+00 4.829277801513671875e+01
-4.093698024749755859e+00 7.324784755706787109e+00 4.830984878540039062e+01
-6.395390510559082031e+00 7.374888896942138672e+00 4.789981460571289062e+01
-4.833560943603515625e+00 7.477354526519775391e+00 4.784450531005859375e+01
-4.074781417846679688e+00 7.626656055450439453e+00 4.809091949462890625e+01
-9.005123138427734375e+00 1.549958705902099609e+01 3.978819274902343750e+01
-1.105780601501464844e+01 1.513341236114501953e+01 3.885369491577148438e+01
-1.154905509948730469e+01 1.506805610656738281e+01 3.868535614013671875e+01
-1.538697910308837891e+01 1.452637004852294922e+01 3.729781723022460938e+01
-9.419281959533691406e+00 1.523514938354492188e+01 3.967979049682617188e+01
-8.919079780578613281e+00 1.521218490600585938e+01 3.990908432006835938e+01
-1.024586677551269531e+01 1.493137264251708984e+01 3.946215438842773438e+01
-1.514067363739013672e+01 1.426972675323486328e+01 3.771897125244140625e+01
-9.236612319946289062e+00 1.496792697906494141e+01 3.985357666015625000e+01
-1.006756210327148438e+01 1.477516460418701172e+01 3.963548660278320312e+01
-1.191208267211914062e+01 1.460054206848144531e+01 3.916604232788085938e+01
-9.673458099365234375e+00 1.473674106597900391e+01 3.983039855957031250e+01
-1.289107131958007812e+01 1.436956787109375000e+01 3.883898162841796875e+01
-8.397611618041992188e+00 1.479642200469970703e+01 4.059777069091796875e+01
-1.003541374206542969e+01 1.455729866027832031e+01 3.994751739501953125e+01
-8.905335426330566406e+00 1.459430408477783203e+01 4.035511779785156250e+01
-8.306547164916992188e+00 1.449932956695556641e+01 4.071953201293945312e+01
-8.954278945922851562e+00 1.433840751647949219e+01 4.058837890625000000e+01
-1.186005973815917969e+01 1.403254508972167969e+01 3.972182464599609375e+01
-8.637029647827148438e+00 1.425956535339355469e+01 4.068530273437500000e+01
-9.599926948547363281e+00 1.417894935607910156e+01 4.045727920532226562e+01
-1.173015403747558594e+01 1.392069244384765625e+01 4.003842163085937500e+01
-8.463181495666503906e+00 1.411984729766845703e+01 4.093747329711914062e+01
-7.707087039947509766e+00 1.417327404022216797e+01 4.176484298706054688e+01
-8.320271492004394531e+00 1.392257118225097656e+01 4.137065124511718750e+01
-7.731683254241943359e+00 1.375720024108886719e+01 4.192012023925781250e+01
-8.226356506347656250e+00 1.361105251312255859e+01 4.147533416748046875e+01
-1.125877952575683594e+01 1.337263393402099609e+01 4.074832916259765625e+01
-1.343764400482177734e+01 1.306181526184082031e+01 3.979748153686523438e+01
-8.871090888977050781e+00 1.325263500213623047e+01 4.180653381347656250e+01
-1.345444107055664062e+01 1.263586330413818359e+01 3.985671615600585938e+01
-1.390361785888671875e+01 1.254276847839355469e+01 3.956614303588867188e+01
-7.150773048400878906e+00 1.339477443695068359e+01 4.262544631958007812e+01
-1.104342174530029297e+01 1.295021343231201172e+01 4.121071624755859375e+01
-1.296275997161865234e+01 1.246795082092285156e+01 4.038997268676757812e+01
-9.619809150695800781e+00 1.261361789703369141e+01 4.200138854980468750e+01
-1.099679088592529297e+01 1.245352935791015625e+01 4.147057723999023438e+01
-1.338104534149169922e+01 1.210530281066894531e+01 4.031295013427734375e+01
-1.277974796295166016e+01 1.216720962524414062e+01 4.089720153808593750e+01
-6.730981349945068359e+00 1.265996932983398438e+01 4.295048522949218750e+01
-9.423108100891113281e+00 1.242829418182373047e+01 4.216708374023437500e+01
-6.411752223968505859e+00 1.261598110198974609e+01 4.320863723754882812e+01
-6.099118232727050781e+00 1.259307003021240234e+01 4.354462814331054688e+01
-1.316718959808349609e+01 1.176576805114746094e+01 4.069404602050781250e+01
-1.008410549163818359e+01 1.204775428771972656e+01 4.248490524291992188e+01
-1.090175342559814453e+01 1.190949058532714844e+01 4.200016403198242188e+01
-6.060217380523681641e+00 1.215247535705566406e+01 4.327372360229492188e+01
-1.049585533142089844e+01 1.186167907714843750e+01 4.224625396728515625e+01
-1.270082855224609375e+01 1.161677455902099609e+01 4.136930465698242188e+01
-7.904579162597656250e+00 1.209701538085937500e+01 4.351594161987304688e+01
-6.642182350158691406e+00 1.176251792907714844e+01 4.317754745483398438e+01
-1.096992111206054688e+01 1.151141166687011719e+01 4.225640106201171875e+01
-8.352393150329589844e+00 1.168025302886962891e+01 4.331856918334960938e+01
-1.044320678710937500e+01 1.146355819702148438e+01 4.251950454711914062e+01
-5.557147502899169922e+00 1.163348960876464844e+01 4.404735946655273438e+01
-1.216176509857177734e+01 1.106025314331054688e+01 4.187738037109375000e+01
-8.588754653930664062e+00 1.118856048583984375e+01 4.328237915039062500e+01
-8.151209831237792969e+00 1.112895393371582031e+01 4.352166748046875000e+01
-1.226613235473632812e+01 1.046695899963378906e+01 4.184121322631835938e+01
-5.401844501495361328e+00 1.108602428436279297e+01 4.481654357910156250e+01
-8.272747993469238281e+00 1.076195049285888672e+01 4.350500488281250000e+01
-5.062049865722656250e+00 1.103240013122558594e+01 4.510526275634765625e+01
-1.170754909515380859e+01 1.035545921325683594e+01 4.233424377441406250e+01
-6.909197807312011719e+00 1.067412853240966797e+01 4.416297912597656250e+01
-1.134631729125976562e+01 1.033571434020996094e+01 4.273618698120117188e+01
-8.292724609375000000e+00 1.032957649230957031e+01 4.424819183349609375e+01
-4.470910549163818359e+00 1.048956489562988281e+01 4.547760391235351562e+01
-7.970837116241455078e+00 1.026740741729736328e+01 4.451316452026367188e+01
-9.594601631164550781e+00 9.908113479614257812e+00 4.349539184570312500e+01
-9.127956390380859375e+00 9.813327789306640625e+00 4.415754699707031250e+01
-8.652001380920410156e+00 9.704074859619140625e+00 4.421379470825195312e+01
-1.061657142639160156e+01 9.464333534240722656e+00 4.367036437988281250e+01
-7.486442565917968750e+00 9.697856903076171875e+00 4.533121871948242188e+01
-9.147569656372070312e+00 9.339790344238281250e+00 4.424471664428710938e+01
-1.102859306335449219e+01 9.039664268493652344e+00 4.338950347900390625e+01
-8.047123908996582031e+00 9.115713119506835938e+00 4.495941543579101562e+01
-6.951717376708984375e+00 9.194105148315429688e+00 4.597334671020507812e+01
-1.023703861236572266e+01 8.931900978088378906e+00 4.465731430053710938e+01
-8.658418655395507812e+00 8.727794647216796875e+00 4.490493774414062500e+01
-1.053585529327392578e+01 8.499539375305175781e+00 4.435348510742187500e+01
-4.605047225952148438e+00 8.846528053283691406e+00 4.684950637817382812e+01
-3.216176986694335938e+00 8.706903457641601562e+00 4.751106262207031250e+01
-1.103481650352478027e+00 8.644340515136718750e+00 4.790947723388671875e+01
-3.865856409072875977e+00 8.291436195373535156e+00 4.741528320312500000e+01
-1.006586933135986328e+01 7.872651576995849609e+00 4.501019287109375000e+01
-3.363156080245971680e+00 8.088010787963867188e+00 4.777551269531250000e+01
-7.842797756195068359e+00 7.782583236694335938e+00 4.597304916381835938e+01
-6.861703395843505859e+00 7.584655284881591797e+00 4.712659072875976562e+01
-6.292138099670410156e+00 7.424729347229003906e+00 4.779084014892578125e+01
-6.915196895599365234e+00 6.983284950256347656e+00 4.750987625122070312e+01
-6.475567817687988281e+00 6.945359706878662109e+00 4.816101455688476562e+01
-5.680017948150634766e+00 6.283066272735595703e+00 4.822786331176757812e+01
-7.311381816864013672e+00 1.275963306427001953e+01 4.289081573486328125e+01
-5.989391326904296875e+00 1.025580406188964844e+01 4.558849716186523438e+01
-4.996529579162597656e+00 1.015592193603515625e+01 4.569477844238281250e+01
-1.128532695770263672e+01 9.315436363220214844e+00 4.298762512207031250e+01
-6.600119113922119141e+00 8.983017921447753906e+00 4.620813369750976562e+01
-9.692302346229553223e-01 9.159545898437500000e+00 4.780768585205078125e+01
-5.420891761779785156e+00 8.512276649475097656e+00 4.717685317993164062e+01
-8.165469169616699219e+00 8.233877182006835938e+00 4.563383483886718750e+01
-6.088249683380126953e+00 8.132040977478027344e+00 4.726036453247070312e+01
-4.649225711822509766e+00 7.879410743713378906e+00 4.732122802734375000e+01
-5.334211826324462891e+00 7.919360637664794922e+00 4.756278228759765625e+01
-2.733757257461547852e+00 7.662434577941894531e+00 4.846031570434570312e+01
-7.355884552001953125e+00 7.162774562835693359e+00 4.695200729370117188e+01
-4.218232154846191406e+00 7.257801055908203125e+00 4.846445083618164062e+01
-4.871133804321289062e+00 7.222955226898193359e+00 4.822629165649414062e+01
-5.350115299224853516e+00 5.691358566284179688e+00 4.893319320678710938e+01
-5.713636875152587891e+00 6.726354122161865234e+00 4.851675033569335938e+01
-4.249807357788085938e+00 6.632274150848388672e+00 4.883476257324218750e+01
-5.824671745300292969e+00 5.756370544433593750e+00 4.832516860961914062e+01
-6.913938999176025391e+00 6.452513217926025391e+00 4.750386428833007812e+01
-6.331194400787353516e+00 5.863852977752685547e+00 4.811127471923828125e+01
-6.321782588958740234e+00 6.254560470581054688e+00 4.801200485229492188e+01
-5.199371337890625000e+00 6.083215713500976562e+00 4.879206085205078125e+01
-5.239679336547851562e+00 8.820912361145019531e+00 4.671898651123046875e+01
-4.841398239135742188e+00 7.445105552673339844e+00 4.792340469360351562e+01
-9.519979476928710938e+00 7.685813426971435547e+00 4.538502120971679688e+01
-9.556925773620605469e+00 7.335772037506103516e+00 4.557390213012695312e+01
-3.019957780838012695e+00 7.034031867980957031e+00 4.879837799072265625e+01
-9.972232818603515625e+00 1.487450027465820312e+01 3.960533523559570312e+01
-9.494693756103515625e+00 1.435769653320312500e+01 4.038797378540039062e+01
-1.048553752899169922e+01 1.410447883605957031e+01 4.005333328247070312e+01
-1.145421600341796875e+01 1.374052619934082031e+01 4.016412353515625000e+01
-9.141806602478027344e+00 1.383079624176025391e+01 4.123515701293945312e+01
-1.346611690521240234e+01 1.306883430480957031e+01 3.975158691406250000e+01
-1.066543292999267578e+01 1.276399326324462891e+01 4.180750656127929688e+01
-1.145926380157470703e+01 1.229868221282958984e+01 4.165485382080078125e+01
-9.584855079650878906e+00 1.214485454559326172e+01 4.257531356811523438e+01
-1.012751197814941406e+01 1.211468410491943359e+01 4.247102737426757812e+01
-8.580362319946289062e+00 1.161244010925292969e+01 4.324407958984375000e+01
-8.454702377319335938e+00 1.134848117828369141e+01 4.334124374389648438e+01
-8.807725906372070312e+00 1.473742198944091797e+01 4.031484222412109375e+01
-8.984921455383300781e+00 1.440609741210937500e+01 4.052445220947265625e+01
-7.817988872528076172e+00 1.405826759338378906e+01 4.149509811401367188e+01
-8.191500663757324219e+00 1.398828983306884766e+01 4.129007720947265625e+01
-8.205256462097167969e+00 1.359953594207763672e+01 4.137017059326171875e+01
-7.152562618255615234e+00 1.340051937103271484e+01 4.249248123168945312e+01
-1.299204921722412109e+01 1.258882045745849609e+01 4.034556579589843750e+01
-7.551742076873779297e+00 1.307715511322021484e+01 4.237117767333984375e+01
-9.313245773315429688e+00 1.296679878234863281e+01 4.201251983642578125e+01
-1.337908172607421875e+01 1.217047214508056641e+01 4.030470657348632812e+01
-1.275636768341064453e+01 1.221191310882568359e+01 4.089369583129882812e+01
-6.407672882080078125e+00 1.274904441833496094e+01 4.316747665405273438e+01
-6.795773506164550781e+00 1.267121028900146484e+01 4.290761947631835938e+01
-1.096811199188232422e+01 1.195035076141357422e+01 4.189737319946289062e+01
-6.009719371795654297e+00 1.224303054809570312e+01 4.342231369018554688e+01
-7.765920162200927734e+00 1.227698516845703125e+01 4.355139541625976562e+01
-1.276439380645751953e+01 1.165824985504150391e+01 4.135342788696289062e+01
-6.549373626708984375e+00 1.188910579681396484e+01 4.320021820068359375e+01
-1.091977977752685547e+01 1.162631130218505859e+01 4.224637603759765625e+01
-6.045320034027099609e+00 1.173562145233154297e+01 4.370013046264648438e+01
-9.620223045349121094e+00 1.147689342498779297e+01 4.274272155761718750e+01
-1.042346858978271484e+01 1.142082214355468750e+01 4.253747558593750000e+01
-5.487682819366455078e+00 1.163897609710693359e+01 4.388259506225585938e+01
-8.710958480834960938e+00 1.115912818908691406e+01 4.316755294799804688e+01
-8.466399192810058594e+00 1.078193950653076172e+01 4.339352035522460938e+01
-9.458418846130371094e+00 1.075958061218261719e+01 4.330886840820312500e+01
-9.858841896057128906e+00 1.072326374053955078e+01 4.316304397583007812e+01
-5.168802261352539062e+00 1.101810359954833984e+01 4.494485092163085938e+01
-5.599442958831787109e+00 1.098578262329101562e+01 4.481845092773437500e+01
-6.855267524719238281e+00 1.085172557830810547e+01 4.428311920166015625e+01
-9.057694435119628906e+00 1.036078262329101562e+01 4.345585250854492188e+01
-5.808576107025146484e+00 1.065595531463623047e+01 4.533942413330078125e+01
-1.173081874847412109e+01 1.001539897918701172e+01 4.259722137451171875e+01
-5.060353755950927734e+00 1.051017951965332031e+01 4.535425949096679688e+01
-7.952941417694091797e+00 1.032546806335449219e+01 4.454872512817382812e+01
-6.362944126129150391e+00 1.027130317687988281e+01 4.498540115356445312e+01
-1.127545070648193359e+01 9.829174041748046875e+00 4.302857971191406250e+01
-5.989395141601562500e+00 1.025581073760986328e+01 4.558850860595703125e+01
-5.108674526214599609e+00 1.015211963653564453e+01 4.579351806640625000e+01
-8.510972023010253906e+00 9.838126182556152344e+00 4.437234115600585938e+01
-4.181348323822021484e+00 9.958162307739257812e+00 4.559298706054687500e+01
-5.130324363708496094e+00 9.892622947692871094e+00 4.601685333251953125e+01
-7.472441673278808594e+00 9.730010032653808594e+00 4.524538421630859375e+01
-7.862945556640625000e+00 9.653560638427734375e+00 4.489132690429687500e+01
-4.822504043579101562e+00 9.730281829833984375e+00 4.596996307373046875e+01
-6.924753665924072266e+00 9.351871490478515625e+00 4.561446762084960938e+01
-7.371104717254638672e+00 9.188896179199218750e+00 4.556858444213867188e+01
-1.054955005645751953e+01 8.914130210876464844e+00 4.420071792602539062e+01
-6.683932781219482422e+00 8.981798171997070312e+00 4.606748580932617188e+01
-8.606936454772949219e+00 8.751220703125000000e+00 4.489638900756835938e+01
-4.607536792755126953e+00 8.824784278869628906e+00 4.687230300903320312e+01
-7.700662136077880859e+00 8.608945846557617188e+00 4.573120498657226562e+01
-3.246810674667358398e+00 8.794330596923828125e+00 4.755136489868164062e+01
-1.182506322860717773e+00 8.697659492492675781e+00 4.791090011596679688e+01
-5.415694236755371094e+00 8.556580543518066406e+00 4.713093948364257812e+01
-8.134752273559570312e+00 8.279608726501464844e+00 4.560603332519531250e+01
-3.708231449127197266e+00 8.452063560485839844e+00 4.742670059204101562e+01
-2.147143840789794922e+00 8.381559371948242188e+00 4.792935562133789062e+01
-4.019872188568115234e+00 8.283826828002929688e+00 4.737338638305664062e+01
-3.259438753128051758e+00 8.198730468750000000e+00 4.779731369018554688e+01
-5.867149829864501953e+00 5.692424774169921875e+00 4.824430465698242188e+01
-6.343217372894287109e+00 5.848371982574462891e+00 4.820604324340820312e+01
-2.620027542114257812e+00 8.041872978210449219e+00 4.781949996948242188e+01
-9.155532836914062500e+00 7.754765987396240234e+00 4.609621429443359375e+01
-6.307705879211425781e+00 6.293870925903320312e+00 4.790292358398437500e+01
-4.302248001098632812e+00 6.574106216430664062e+00 4.880554962158203125e+01
-6.914964675903320312e+00 6.584363460540771484e+00 4.769036102294921875e+01
-2.321888685226440430e+00 7.795067310333251953e+00 4.827366638183593750e+01
-3.281502485275268555e+00 7.776858329772949219e+00 4.816159820556640625e+01
-5.726890087127685547e+00 6.846563816070556641e+00 4.841422271728515625e+01
-6.843636035919189453e+00 7.619622230529785156e+00 4.717930984497070312e+01
-7.401909828186035156e+00 7.547540664672851562e+00 4.673750686645507812e+01
-6.267645359039306641e+00 7.527875423431396484e+00 4.759888458251953125e+01
-7.018928050994873047e+00 7.007471084594726562e+00 4.731435394287109375e+01
-3.648676872253417969e+00 7.231601715087890625e+00 4.884545135498046875e+01
-4.875014305114746094e+00 7.267587661743164062e+00 4.798476409912109375e+01
-7.270727634429931641e+00 7.260401248931884766e+00 4.690497207641601562e+01
-5.661329269409179688e+00 7.408682346343994141e+00 4.786019134521484375e+01
-2.957729339599609375e+00 7.451611995697021484e+00 4.814443206787109375e+01
-4.942105770111083984e+00 6.883306980133056641e+00 4.868214416503906250e+01
-9.513313293457031250e+00 7.366467475891113281e+00 4.560553741455078125e+01
-2.977722406387329102e+00 7.024425029754638672e+00 4.854237747192382812e+01
-8.769554138183593750e+00 6.696235179901123047e+00 4.733215713500976562e+01
-8.334951400756835938e+00 6.050623893737792969e+00 4.852054214477539062e+01
-5.207594394683837891e+00 8.943204879760742188e+00 4.668061447143554688e+01
-9.556710243225097656e+00 1.474383258819580078e+01 3.996936798095703125e+01
-1.481715583801269531e+01 1.410964488983154297e+01 3.825177001953125000e+01
-8.848828315734863281e+00 1.473295402526855469e+01 4.037584686279296875e+01
-8.893363952636718750e+00 1.432251167297363281e+01 4.059356689453125000e+01
-1.144168663024902344e+01 1.389526748657226562e+01 3.983633804321289062e+01
-1.439341449737548828e+01 1.351899528503417969e+01 3.875879669189453125e+01
-9.407951354980468750e+00 1.403750801086425781e+01 4.071344375610351562e+01
-1.091682147979736328e+01 1.371946811676025391e+01 4.025994110107421875e+01
-7.786144733428955078e+00 1.402062988281250000e+01 4.163264083862304688e+01
-9.180661201477050781e+00 1.369508361816406250e+01 4.115809631347656250e+01
-8.735359191894531250e+00 1.360752964019775391e+01 4.139467239379882812e+01
-1.400013542175292969e+01 1.295174407958984375e+01 3.939955902099609375e+01
-1.203296852111816406e+01 1.307528018951416016e+01 4.077511596679687500e+01
-8.683938026428222656e+00 1.328605175018310547e+01 4.195541763305664062e+01
-7.117482185363769531e+00 1.332672309875488281e+01 4.261972045898437500e+01
-9.654398918151855469e+00 1.306568717956542969e+01 4.178960800170898438e+01
-1.068641853332519531e+01 1.276094818115234375e+01 4.188919067382812500e+01
-1.015632724761962891e+01 1.255824947357177734e+01 4.177223587036132812e+01
-1.287767982482910156e+01 1.211504650115966797e+01 4.084326934814453125e+01
-6.045432090759277344e+00 1.254919815063476562e+01 4.347754669189453125e+01
-1.317053222656250000e+01 1.175835609436035156e+01 4.074723815917968750e+01
-7.043827056884765625e+00 1.212965965270996094e+01 4.323563766479492188e+01
-9.518419265747070312e+00 1.196890735626220703e+01 4.265858840942382812e+01
-1.284417629241943359e+01 1.157599258422851562e+01 4.125880813598632812e+01
-6.514610767364501953e+00 1.176091766357421875e+01 4.315256500244140625e+01
-5.621665954589843750e+00 1.153032112121582031e+01 4.425629043579101562e+01
-8.614928245544433594e+00 1.109841537475585938e+01 4.326998901367187500e+01
-1.223102283477783203e+01 1.059872150421142578e+01 4.197410583496093750e+01
-5.686086654663085938e+00 1.095214176177978516e+01 4.480562591552734375e+01
-8.487240791320800781e+00 1.063273715972900391e+01 4.349428176879882812e+01
-1.180005359649658203e+01 1.032487010955810547e+01 4.222938156127929688e+01
-5.183959007263183594e+00 1.084556865692138672e+01 4.510776519775390625e+01
-5.937973499298095703e+00 1.055418586730957031e+01 4.542858505249023438e+01
-7.992850303649902344e+00 1.019050979614257812e+01 4.461208343505859375e+01
-7.890637397766113281e+00 9.566989898681640625e+00 4.504943847656250000e+01
-6.909154415130615234e+00 9.341451644897460938e+00 4.571279525756835938e+01
-8.060882568359375000e+00 9.015545845031738281e+00 4.501070404052734375e+01
-8.567830085754394531e+00 8.621939659118652344e+00 4.484907150268554688e+01
-1.047632122039794922e+01 8.560771942138671875e+00 4.451584625244140625e+01
-3.174311399459838867e+00 8.741424560546875000e+00 4.743971633911132812e+01
-1.087448120117187500e+00 8.633521080017089844e+00 4.790874099731445312e+01
-2.260949373245239258e+00 7.742369174957275391e+00 4.834775161743164062e+01
-8.095433235168457031e+00 1.258667564392089844e+01 4.244731903076171875e+01
-1.346704101562500000e+01 1.191475963592529297e+01 4.017211151123046875e+01
-7.788605213165283203e+00 1.168478679656982422e+01 4.351669311523437500e+01
-8.949519157409667969e+00 1.056261253356933594e+01 4.320987319946289062e+01
-5.027951717376708984e+00 1.035525512695312500e+01 4.534127044677734375e+01
-5.061705589294433594e+00 1.005729675292968750e+01 4.564035034179687500e+01
-4.545018672943115234e+00 9.757422447204589844e+00 4.595172119140625000e+01
-5.473639965057373047e+00 9.592752456665039062e+00 4.605430603027343750e+01
-6.423686504364013672e+00 9.067484855651855469e+00 4.619049072265625000e+01
-4.633506298065185547e+00 8.813697814941406250e+00 4.681233215332031250e+01
-5.239560604095458984e+00 8.513061523437500000e+00 4.723759078979492188e+01
-5.976870536804199219e+00 8.486898422241210938e+00 4.709662628173828125e+01
-2.040107250213623047e+00 8.400979042053222656e+00 4.767578887939453125e+01
-4.501211643218994141e+00 8.356719970703125000e+00 4.742377471923828125e+01
-3.918215036392211914e+00 8.143796920776367188e+00 4.729730606079101562e+01
-6.726533889770507812e+00 8.099330902099609375e+00 4.703578567504882812e+01
-2.620019912719726562e+00 8.041867256164550781e+00 4.781946945190429688e+01
-3.181823730468750000e+00 8.006904602050781250e+00 4.761009597778320312e+01
-6.195815086364746094e+00 7.956952095031738281e+00 4.731533813476562500e+01
-7.832347393035888672e+00 7.701166629791259766e+00 4.579452133178710938e+01
-4.684142112731933594e+00 7.774605274200439453e+00 4.735869979858398438e+01
-7.563432216644287109e+00 7.430004119873046875e+00 4.639745712280273438e+01
-6.275651454925537109e+00 7.480531215667724609e+00 4.790948104858398438e+01
-4.759965896606445312e+00 7.319926261901855469e+00 4.811763381958007812e+01
-5.693761348724365234e+00 7.279872894287109375e+00 4.785238647460937500e+01
-7.289390087127685547e+00 7.153069972991943359e+00 4.702429962158203125e+01
-4.210417747497558594e+00 7.182152271270751953e+00 4.850160598754882812e+01
-3.061566352844238281e+00 7.036944866180419922e+00 4.885651397705078125e+01
-6.824469089508056641e+00 6.493426322937011719e+00 4.772537994384765625e+01
-5.577023983001708984e+00 6.794939994812011719e+00 4.850457000732421875e+01
-3.223120570182800293e-01 9.221220016479492188e+00 4.795916748046875000e+01
-1.549708843231201172e+01 6.424533367156982422e+00 4.455057525634765625e+01
-9.202053070068359375e+00 7.768148422241210938e+00 4.617617416381835938e+01
-5.182677745819091797e+00 8.793392181396484375e+00 4.670869064331054688e+01
-4.239243507385253906e+00 6.643738746643066406e+00 4.883909988403320312e+01
-8.296340942382812500e+00 6.013287544250488281e+00 4.847864532470703125e+01
-6.265209197998046875e+00 1.219089603424072266e+01 4.332293319702148438e+01
-9.665826797485351562e+00 1.201608180999755859e+01 4.270418548583984375e+01
-1.105942630767822266e+01 1.175375270843505859e+01 4.177627563476562500e+01
-8.719403266906738281e+00 1.171398735046386719e+01 4.310774993896484375e+01
-1.280873680114746094e+01 1.129717445373535156e+01 4.157406616210937500e+01
-8.167116165161132812e+00 1.160591030120849609e+01 4.348133087158203125e+01
-7.969563484191894531e+00 1.120200634002685547e+01 4.353838729858398438e+01
-1.230337905883789062e+01 1.057536220550537109e+01 4.188416290283203125e+01
-5.592397689819335938e+00 1.105076599121093750e+01 4.462104034423828125e+01
-9.718805313110351562e+00 1.427947235107421875e+01 4.038158798217773438e+01
-9.221660614013671875e+00 1.238144111633300781e+01 4.254433822631835938e+01
-1.194593524932861328e+01 1.020943260192871094e+01 4.203625488281250000e+01
-8.466719627380371094e+00 1.024385452270507812e+01 4.392054367065429688e+01
-1.140370845794677734e+01 1.229680061340332031e+01 4.157271957397460938e+01
-8.129064559936523438e+00 1.415878200531005859e+01 4.115700149536132812e+01
-1.030837535858154297e+01 1.389947223663330078e+01 4.040790557861328125e+01
-1.160584568977355957e+00 9.285452842712402344e+00 4.769808578491210938e+01
-7.819796562194824219e+00 1.411767387390136719e+01 4.162075042724609375e+01
-9.119575500488281250e+00 1.376982498168945312e+01 4.118488311767578125e+01
-1.234104347229003906e+01 1.339804649353027344e+01 4.007518386840820312e+01
-8.776101112365722656e+00 1.365318393707275391e+01 4.143284225463867188e+01
-1.338518810272216797e+01 1.211764240264892578e+01 4.030906295776367188e+01
-7.718642234802246094e+00 1.349960899353027344e+01 4.220334625244140625e+01
-1.213602447509765625e+01 1.301210689544677734e+01 4.067908859252929688e+01
-7.167783737182617188e+00 1.339603710174560547e+01 4.251409530639648438e+01
-1.065784549713134766e+01 1.276054382324218750e+01 4.177791213989257812e+01
-7.289395332336425781e+00 1.216651535034179688e+01 4.324089050292968750e+01
-7.517891407012939453e+00 1.157602024078369141e+01 4.337288665771484375e+01
-6.458230972290039062e+00 1.257503318786621094e+01 4.320626831054687500e+01
-6.097278594970703125e+00 1.268794631958007812e+01 4.359356689453125000e+01
-4.593354225158691406e+00 1.034825229644775391e+01 4.530233383178710938e+01
-6.482865810394287109e+00 1.025028800964355469e+01 4.489154434204101562e+01
-4.452754497528076172e+00 9.872589111328125000e+00 4.614585113525390625e+01
-1.106589317321777344e+01 9.065677642822265625e+00 4.334783172607421875e+01
-3.862761020660400391e+00 8.929111480712890625e+00 4.702411270141601562e+01
-4.734959602355957031e+00 8.869511604309082031e+00 4.671213912963867188e+01
-1.062232398986816406e+01 8.372591972351074219e+00 4.409267425537109375e+01
-3.221207380294799805e+00 8.799531936645507812e+00 4.754452514648437500e+01
-3.889538049697875977e+00 8.313362121582031250e+00 4.739564132690429688e+01
-4.786697387695312500e+00 8.285917282104492188e+00 4.723669433593750000e+01
-9.991845130920410156e+00 7.907001018524169922e+00 4.506787109375000000e+01
-3.225312471389770508e+00 8.135146141052246094e+00 4.768968200683593750e+01
-2.329945564270019531e+00 7.753540992736816406e+00 4.817648696899414062e+01
-6.190380573272705078e+00 7.653244495391845703e+00 4.754813766479492188e+01
-7.419905662536621094e+00 7.059967041015625000e+00 4.665789794921875000e+01
-7.087155342102050781e+00 6.950304031372070312e+00 4.744807434082031250e+01
-6.899787425994873047e+00 6.531240463256835938e+00 4.772419738769531250e+01
-7.013459682464599609e+00 1.287580204010009766e+01 4.282897186279296875e+01
-6.151835918426513672e+00 8.062790870666503906e+00 4.726718139648437500e+01
-4.931332111358642578e+00 6.899559974670410156e+00 4.870508193969726562e+01
-4.471342086791992188e+00 7.148037910461425781e+00 4.879972839355468750e+01
-6.267299175262451172e+00 5.894105911254882812e+00 4.815281677246093750e+01
-6.744642734527587891e+00 8.179871559143066406e+00 4.663150024414062500e+01
-1.175403976440429688e+01 1.291134929656982422e+01 4.098012924194335938e+01
-1.606508636474609375e+01 7.084893703460693359e+00 4.296611022949218750e+01
-7.725428581237792969e+00 1.121301269531250000e+01 4.358177566528320312e+01
-5.764435291290283203e+00 1.156228637695312500e+01 4.394705581665039062e+01
-1.029328060150146484e+01 1.356578731536865234e+01 4.080933761596679688e+01
-1.300239443778991699e+00 8.715556144714355469e+00 4.785380935668945312e+01
-1.120878601074218750e+01 1.166028022766113281e+01 4.158711624145507812e+01
-1.146568393707275391e+01 1.215968132019042969e+01 4.165158462524414062e+01
-1.040909671783447266e+01 1.111018085479736328e+01 4.223764801025390625e+01
-6.808780193328857422e+00 1.086143207550048828e+01 4.421160507202148438e+01
-9.334218978881835938e+00 1.152965164184570312e+01 4.288618469238281250e+01
-5.933392524719238281e+00 1.061223125457763672e+01 4.533275985717773438e+01
-6.175486564636230469e+00 1.213594913482666016e+01 4.327535247802734375e+01
-1.173554039001464844e+01 9.975068092346191406e+00 4.259103012084960938e+01
-9.365163803100585938e+00 1.296823501586914062e+01 4.192890167236328125e+01
-6.409144401550292969e+00 1.027156925201416016e+01 4.498587799072265625e+01
-8.209219932556152344e+00 1.169045257568359375e+01 4.348451614379882812e+01
-8.857265472412109375e+00 1.180118942260742188e+01 4.297147750854492188e+01
-9.135150909423828125e+00 9.353120803833007812e+00 4.432031250000000000e+01
-1.098341369628906250e+01 9.184243202209472656e+00 4.351205062866210938e+01
-1.047027969360351562e+01 8.625775337219238281e+00 4.451850891113281250e+01
-2.415223360061645508e+00 8.731823921203613281e+00 4.793119049072265625e+01
-9.825918197631835938e+00 8.215053558349609375e+00 4.508284759521484375e+01
-8.662540435791015625e+00 1.324887752532958984e+01 4.205223083496093750e+01
-2.418397188186645508e+00 7.925786972045898438e+00 4.809531021118164062e+01
-1.269252967834472656e+01 1.145536899566650391e+01 4.170986175537109375e+01
-1.921755981445312500e+01 5.024961948394775391e+00 4.452506637573242188e+01
-7.052370071411132812e+00 1.340838813781738281e+01 4.255232238769531250e+01
-5.726576805114746094e+00 9.643635749816894531e+00 4.569565200805664062e+01
-6.959635257720947266e+00 7.997621536254882812e+00 4.688383102416992188e+01
-7.841554641723632812e+00 7.798663139343261719e+00 4.571917724609375000e+01
-1.997495269775390625e+01 3.994538068771362305e+00 4.443575668334960938e+01
-7.022397518157958984e+00 6.976141929626464844e+00 4.731014251708984375e+01
-7.234561920166015625e+00 7.459480285644531250e+00 4.690719985961914062e+01
6.099720001220703125e+00 1.275656414031982422e+01 4.744176864624023438e+01
-9.399199485778808594e+00 7.508529663085937500e+00 4.554144287109375000e+01
-8.873988151550292969e+00 6.653739452362060547e+00 4.694443511962890625e+01
-1.051201057434082031e+01 4.605208396911621094e+00 4.818729019165039062e+01
-5.768121242523193359e+00 6.274176120758056641e+00 4.821258163452148438e+01
