-2.461513256716004960e+01 2.978512933632730508e+00 2.320262064729693430e-01
-2.903696692266552404e+01 -1.606657881070028271e-02 -3.431604178615658363e+00
-2.630077574651295791e+01 7.918422725804432627e-01 -1.220003128583455165e+00
-2.267219299522993836e+01 1.121715181417541229e+00 -8.640503329093407459e-02
-2.339972667273550755e+01 1.242110695303887180e+00 1.992796331890367423e-01
-2.892629972644887104e+01 4.557980313756043733e-01 -3.333871353620409650e+00
-2.284004298186745530e+01 1.150706468791053538e+00 -3.914782954828397443e-01
-2.257394698145273892e+01 2.530757956271282971e+00 4.347142870612252796e-01
-3.408890251130477367e+01 -9.398014595722623543e-01 -9.782403403893496829e+00
-2.336701926515696925e+01 1.465263663273334016e+00 -3.752053015527034852e-02
-2.387413278625017199e+01 1.593473285682827090e+00 8.737321015263477264e-02
-3.517255229806833228e+01 4.255340293126442797e-01 -1.002168181191308349e+01
-3.493268659084287009e+01 3.965265275229324926e-01 -9.747220352634357710e+00
-3.561313873176916189e+01 2.678935984819238447e-01 -1.039278073010034475e+01
-3.556703955717627252e+01 2.112881432382669455e-01 -9.676912805907747384e+00
-3.615913294731530669e+01 -1.166328250963004631e-01 -9.939889645935544138e+00
-2.139635780611825311e+01 1.165399233660905942e+01 -2.324482180700877976e+01
-3.317090340359985134e+01 1.007571381085941020e+00 -5.167519036082940609e+00
-2.303063520899674188e+01 1.064561632077248987e+01 -2.284125103389448697e+01
-2.373925761801699963e+01 1.024137982560529281e+01 -2.251600242033359933e+01
-3.299952302586689257e+01 7.742677007021030455e-01 -5.063953555191383238e+00
-2.616952354052467200e+01 2.083288354832258271e+00 -1.520059698769238743e+00
-2.620560983710140590e+01 2.140647725251244804e+00 -1.338763841554056366e+00
-3.341373175114933503e+01 7.252439881456764770e-01 -5.297678099478223324e+00
-2.433237131837435641e+01 1.019652089732168143e+01 -2.277024093182833298e+01
-2.268188661369190484e+01 1.375081544751799445e+00 -2.143738028775314941e-01
-3.076506485486042664e+01 -5.761848242082763250e+00 -3.768396185595651815e+00
-3.193513174521003606e+01 -5.823486370788065969e+00 -4.164137265067012095e+00
-3.496126835402677102e+01 -6.150559281921992749e+00 -4.462895916025011012e+00
-3.304000734110146453e+01 -5.788746652609864540e+00 -4.336303096460611961e+00
-2.259533356917103220e+01 1.087174453942348240e+00 -1.873843568899313805e-01
-2.521469849206543756e+01 8.622812306906023849e+00 -2.409361266818186209e+01
-3.586725812480960229e+01 -5.783416565808508381e+00 -4.774151490981061841e+00
-2.574323793896375889e+01 4.142404317788842549e-01 -2.378897278025368767e+00
-2.616980509520739417e+01 9.063316322015174009e+00 -2.272303320613333355e+01
-2.661684943828910477e+01 8.930470171932363144e+00 -2.167977823613493982e+01
-2.655322837277910608e+01 7.908129407664088006e+00 -2.332496923987392989e+01
-2.693605339522983755e+01 8.110543620467042913e+00 -2.285104277953076135e+01
-2.545494671318490276e+01 6.832280328000992498e+00 -2.503278993471795388e+01
-2.620976455711767628e+01 7.385241618654692530e+00 -2.376359356381128052e+01
-2.766417101162210557e+01 8.552093424971621616e+00 -2.128372619049806147e+01
-2.562786803554600112e+01 6.858569446833987726e+00 -2.453947945953636989e+01
-2.739699616527495607e+01 8.139770213878430027e+00 -2.177521652018173626e+01
-2.733291521858602025e+01 7.912490617419960515e+00 -2.257866951276160705e+01
-2.823924459885748917e+01 8.050111799630032650e+00 -2.182943162656831149e+01
-3.848058183775840746e+01 -4.995364032120544806e+00 -5.585589888149224080e+00
-3.455915694258350612e+01 5.191338273216606902e-01 -1.383926480679629023e+01
-2.730687842674979393e+01 6.903849973069313251e+00 -2.344371596685601489e+01
-2.825203445874630503e+01 7.624049269297694664e+00 -2.175319466024602733e+01
-2.773119099918198671e+01 7.475624772695148579e+00 -2.003724018943012553e+01
-3.499031063733021796e+01 6.903060621842329603e-01 -1.408077678584905712e+01
-2.834336317950060291e+01 7.206209316019108968e+00 -2.106425167979015711e+01
-2.809262736738775956e+01 6.927129841929609455e+00 -2.144303346421424905e+01
-2.680792910496584724e+01 5.837684961734996847e+00 -2.380749547057312654e+01
-2.824147991155886572e+01 6.755691309752625884e+00 -2.165989446195158052e+01
-2.793591126400293589e+01 6.964637638598276226e+00 -1.995456492133591908e+01
-2.826626324788891509e+01 6.706896450489596262e+00 -2.080472504873157646e+01
-1.275154194571483401e+01 4.350613873569729728e-01 3.098802610847454453e+00
-2.819303118917131457e+01 6.278039653642855100e+00 -2.208844863474224240e+01
-2.776429974018003222e+01 6.069418122554061767e+00 -2.226641458264796825e+01
-2.825601652842478728e+01 6.158884583124745404e+00 -2.160321375402163113e+01
-2.788286982562255645e+01 5.811165555465594323e+00 -2.242863514849978301e+01
-2.768249974506522193e+01 4.401670495486194490e+00 -2.539307902241321813e+01
-3.013163926134309989e+01 7.835842724387644509e+00 -1.243589639860688223e+01
-3.026355440231494498e+01 5.357698451722267663e+00 -2.053013761394126746e+01
-3.139941792927978526e+01 4.491719259046242030e+00 -2.026614070313040017e+01
-3.721540622232618034e+01 -5.044887187014454710e+00 -8.571376176586358753e+00
-3.688322926629521703e+01 -4.941506372018276139e+00 -8.312888870624412618e+00
-1.443860140737265851e+01 2.460040219537683592e-01 3.396119236929949547e+00
-3.432403557161443075e+01 -6.186509381789506712e-02 -1.352778005686715446e+01
-3.701558184632632731e+01 -8.574005076624040100e+00 -4.488785504164177098e+00
-3.764227191760896574e+01 -8.590951222812142518e+00 -4.717767353982715406e+00
-2.663130996576214926e+01 8.223331242976613664e-01 -2.481695487114366827e+00
-3.466889066531273755e+01 -1.878841115641080028e-01 -1.471872383234633475e+01
-3.963762957822737576e+01 -8.778027269834353774e+00 -7.714152463390594683e+00
-3.832932401215528362e+00 7.181372390796394445e-01 2.733286743747975311e+00
-3.948382921782270927e+01 4.960570904397616943e+00 -1.333911338950125014e+01
-3.375957764303449693e+01 -1.399788342092154192e-01 -1.452762572169426747e+01
-3.461510134260034732e+01 -7.691168086848872321e+00 -3.204977495990840808e+00
-3.466799230971926704e+01 -7.477942157098631526e+00 -3.026002630162199836e+00
-2.195918484019657413e+01 1.152317148743302333e+01 -2.343497842958232980e+01
-2.205066771930708214e+01 1.155277439031282682e+01 -2.311822725023152714e+01
-3.494600157054135536e+01 -7.955380634665784712e+00 -2.478984335102048409e+00
-3.561533912307250205e+01 -8.215296226853107342e+00 -3.143493578387582588e+00
-3.861987532252704369e+01 -8.536204716757145761e+00 -2.367540982412873252e+00
-3.589401717794910951e+01 -7.660461959296430479e+00 -2.525288106929703957e+00
-3.894835264578250644e+01 -8.100262679678953859e+00 -2.439724357552503609e+00
-2.271426131303668328e+01 1.113697787433404152e+01 -2.305105745756753066e+01
-2.249818822257084250e+01 1.081044841167720882e+01 -2.303589342641869919e+01
-3.197444073784111396e+01 -7.530162918397271810e+00 -5.467307313903508437e+00
-2.221861212933622909e+01 1.055807776259074515e+01 -2.340351724586822613e+01
-4.017589535923870869e+01 -9.142881061274389154e+00 -7.829630943116518971e+00
-3.675550327890651658e+01 -6.999782656884995902e+00 -3.091859506430497007e+00
-4.099897465668760077e+01 -9.378081193446988095e+00 -8.497580195838249750e+00
-2.245777725927669977e+01 9.949725041006727722e+00 -2.383235213351394322e+01
-3.584983125164637130e+01 -6.306466868069859899e+00 -3.791986835391076838e+00
-2.302301530702753851e+01 1.007280437629678893e+01 -2.395246382682006114e+01
-3.337624756555772620e+01 -6.247327177305281865e+00 -5.776848176860871931e+00
-3.727085681279157825e+01 -6.930570898499105681e+00 -7.961257763748270655e+00
-4.045130426590811368e+01 -7.541306272155040347e+00 -9.086937057744552959e+00
-3.527488774543929395e+01 -5.277406467105548060e+00 -4.864576836460258846e+00
-2.334156080485893980e+01 9.728838882840438629e+00 -2.416410922363695946e+01
-2.381363105615809417e+01 1.024056172457645708e+01 -2.257174520135921014e+01
-2.347729706980252118e+01 9.468058060497789086e+00 -2.436925928346296644e+01
-2.495981866831503027e+01 1.061131149191336398e+01 -2.252340228572222358e+01
-2.436527193238513078e+01 1.021572656872178264e+01 -2.276816086565517239e+01
-2.416673531985400203e+01 9.416588497027403193e+00 -2.363874103780933567e+01
-3.647703524578814438e+01 -4.752056781768390081e+00 -5.403811230347081995e+00
-2.475669951657871337e+01 9.801514153264138329e+00 -2.244942462508214831e+01
-2.552410818421677874e+01 9.948763500436903939e+00 -2.231243733182540723e+01
-2.475402443709193179e+01 9.133330824654487756e+00 -2.365329226168917032e+01
-2.596089446409991908e+01 1.002189780121821627e+01 -2.210508402377557502e+01
-2.415115703525645330e+01 8.566032789184138352e+00 -2.430578869629833605e+01
-2.572669064893529978e+01 9.616936200739598206e+00 -2.242311162217421128e+01
-2.494652729836548133e+01 8.901587278765862976e+00 -2.380701969373979310e+01
-2.396185932489877857e+01 8.130046448856452557e+00 -2.447885906775685427e+01
-2.483288879885323652e+01 8.494772665489783492e+00 -2.440871205550899958e+01
-3.763527225987134273e+01 -5.142989325698531289e+00 -8.683575889219699917e+00
-2.756446053090000348e+01 -2.297616250596776766e+00 -1.797112623863508674e+00
-1.262470258430743453e+00 6.129633804818175324e-01 2.164412793311866867e+00
-2.540906207050149490e+01 8.585280857586905512e+00 -2.402825770875535838e+01
-2.013260252423018670e+01 -2.873018511160090327e-01 2.624060712713915500e+00
-2.079511066144811693e+01 -3.452875882924000273e-01 2.195024306325533914e+00
-2.546452779271364708e+00 6.767707183171827179e-01 2.467520917070769038e+00
-2.529554396281638518e+01 8.388415232765327190e+00 -2.418054546857140608e+01
-2.592537091237792524e+01 9.116828326115157921e+00 -2.190844113104018476e+01
-2.897722305823539202e+01 -2.038781454961813289e+00 -2.324996210831061560e+00
-2.582903419609193563e+01 8.637772291803207381e+00 -2.382638356604282137e+01
-1.279437254955078451e+01 4.290208058278526249e-01 3.105772959359368812e+00
-2.598961313071999157e+01 8.786634781387496318e+00 -2.257883300962241435e+01
-2.545357386003787070e+01 8.151743531798947728e+00 -2.420186326911390751e+01
-2.846314262102799120e+01 -1.285651974868825098e+00 -1.619100910215724110e+00
-2.609812894453374099e+01 8.269566753634515877e+00 -2.375650267070778909e+01
-2.068738087085932165e+01 -5.013760400326372491e-02 1.201835225869831048e+00
-2.528700592873763853e+01 7.711850872277690172e+00 -2.441872611447082875e+01
-3.113199466886901945e+01 -7.771426899190074788e-01 -1.139794661133293197e+00
-3.010508063664342160e+01 -7.280105563813590308e-01 -1.608549591134714074e+00
-2.155470725014260225e+01 2.786458541389289501e-01 1.296279124124461779e+00
-2.079707985907133505e+01 1.810854340983842903e-01 7.656777846808728860e-01
-3.202253636860393726e+01 -1.524185724678817966e+00 -4.679929423101548025e+00
-2.664993434601561617e+01 8.918138189620828271e+00 -2.165919706721679105e+01
-2.590857246658443813e+01 8.049837316119052844e+00 -2.384716644336031521e+01
-2.713358351228754728e+01 9.062777519893232991e+00 -2.115222152069636863e+01
-2.378261383468227308e+01 3.932725125221058771e-01 8.451135578381409053e-01
-3.203018479535557361e+01 -6.832395289206441014e-01 -5.049493916258758652e+00
-2.718131076659036438e+01 8.763139278934543697e+00 -2.116948377275982907e+01
-2.671089403826898590e+01 8.083520189318898375e+00 -2.312474177374361517e+01
-1.569893014788339514e+01 1.361042751102779391e+00 2.139784356461498227e+00
-2.557305407811030662e+01 7.267481898388883366e+00 -2.389062793977936749e+01
-2.616769019621144921e+01 7.371099899127248278e+00 -2.374283720209858828e+01
-3.216764469372307644e+01 1.565200065687167297e-01 -4.539719109831082733e+00
-2.933094664907327953e+01 3.697102345752831809e-01 -3.474211820340709522e+00
-2.349590346578696298e+01 1.234195160121460688e+00 1.272117314318674808e-01
-3.408513117885302535e+01 -9.554077306778641088e-01 -9.831765962905386402e+00
-2.297345935580160159e+01 1.401115553129358648e+00 -1.780558661395548192e-01
-2.323307712436553274e+01 1.450155519817842409e+00 -6.315576593153870988e-02
-2.387989647885599709e+01 1.604501499497532180e+00 8.401522199661193291e-02
-2.724564206967136570e+01 7.840711356830745160e+00 -2.250334655375548820e+01
-2.634348428005256437e+01 7.086663790982504096e+00 -2.352839964784060811e+01
-2.781212342978227881e+01 7.963342089458551598e+00 -2.215457761460178432e+01
-2.804907780290140096e+01 8.809638520933237515e+00 -1.861551356309232119e+01
-3.575623052501379107e+01 -1.836361063034244179e-01 -9.815811050083464551e+00
-2.863987232377315806e+01 8.457091110894934261e+00 -2.072450346428495394e+01
-3.548497068636829965e+01 1.995707362488262637e-01 -9.629677481111819759e+00
-2.717088693469111860e+01 7.169515970108220060e+00 -2.340373550134821556e+01
-3.317646497260890470e+01 1.326988498129371807e+00 -5.496065318238275488e+00
-3.560028654915144131e+01 3.288323815802975392e-01 -1.029385043643897291e+01
-3.479522676209764853e+01 4.549141431006106240e-01 -9.631082920642832335e+00
-2.612136998344436734e+01 2.160642840214054061e+00 -1.338125863762763768e+00
-2.808043488612695526e+01 7.940912772116289986e+00 -2.141067377311165387e+01
-2.725123205076026522e+01 7.221929611013065298e+00 -2.291456040586313492e+01
-2.800401629142503879e+01 8.285593894198481024e+00 -1.893397035341486401e+01
-2.822079001136497567e+01 7.604219905906889565e+00 -2.170509235203769904e+01
-2.731644527488252550e+01 6.951078487575227172e+00 -2.284311772568692334e+01
-2.818939966833037047e+01 8.068810768097922193e+00 -1.928478017818471102e+01
-2.784130714673155538e+01 7.794841980699313666e+00 -1.940753178418382774e+01
-2.774414207767284424e+01 7.005077835627641747e+00 -2.249066357666305649e+01
-2.782157425818874330e+01 7.052024616376623811e+00 -2.199506934957448934e+01
-2.717756769921567894e+01 6.484167812795785579e+00 -2.321676675046511562e+01
-3.285794318638205880e+01 -2.398459262789365276e-02 -1.240801668279129544e+01
-3.308296905659994991e+01 5.657542199109705239e-01 -1.047642990277746122e+01
-2.460149086047261946e+01 2.774946416275233307e+00 -1.194344821626698305e-01
-2.774107526067842855e+01 7.409469665153281426e+00 -1.996139113638566442e+01
-2.824455730927567032e+01 7.399132243106970819e+00 -2.083591785469449320e+01
-2.789730801644494562e+01 7.600428477732270593e+00 -1.902910671964023237e+01
-3.443730042434624750e+01 -7.717188807200292544e-02 -1.349077969830903712e+01
-2.834513579486956658e+01 7.179320056776564485e+00 -2.103473989879158523e+01
-2.782586054800799147e+01 6.589725738128288768e+00 -2.259600531377591892e+01
-2.626712515439281503e+01 5.716607080563916199e+00 -2.362160252689173134e+01
-2.796618241909953895e+01 6.958038903179714296e+00 -2.002667181468624946e+01
-2.741820795172199965e+01 6.095606120080368839e+00 -2.265417503911422514e+01
-2.820542362030654360e+01 6.462629969842552669e+00 -2.200490041315432777e+01
-2.632912442553721277e+01 3.391792280643291413e+00 -2.586784531256702824e-01
-2.805720616669789536e+01 6.639620207647066508e+00 -2.017554962749522574e+01
-2.813752261058946402e+01 6.208160775495489503e+00 -2.207616923525931441e+01
-3.214052057401946172e+01 2.378746220241881204e+00 -6.355761381352574624e+00
-2.761485557877403707e+01 5.982863334479842976e+00 -2.217792437149206464e+01
-3.377757865937759618e+01 8.965895208745111589e-01 -1.253382422973575672e+01
-2.671764104300484632e+01 5.374844432396825411e+00 -2.326181286213443045e+01
-2.803584685168494417e+01 6.627359254236232289e+00 -1.937683425876812748e+01
-2.822734846133894848e+01 6.162028879026777872e+00 -2.154707930449867348e+01
-2.767568918573429215e+01 5.711803977967798929e+00 -2.210291049797253748e+01
-2.806907776836134971e+01 5.789387801148881962e+00 -2.196079271118746234e+01
-2.826913246907242439e+01 5.886140646892272343e+00 -2.145598059689589476e+01
-3.640188668296565311e+01 -6.900414383852508937e-01 -2.115331028890633291e+01
-3.007196587143150524e+01 5.291431811953383857e+00 -2.040398262435326515e+01
-3.634975320860376513e+01 -2.233989379749635518e+00 -2.691133746525550663e+01
-2.962808982430602001e+01 7.252516722492076795e+00 -1.144421283557448987e+01
-2.971553003938802107e+01 4.824061867004333592e+00 -2.010508641741469305e+01
-2.949267647512447965e+01 3.716824968355904701e+00 -2.407534154414442540e+01
-2.817058985758000844e+01 4.133178946591691272e+00 -1.452231888862509201e+00
-2.880491086683528934e+01 4.618612448493825795e+00 -1.357042450617250484e+00
-3.247346313008449670e+01 -1.298070749147715253e+00 -2.485873766500197846e+01
-2.997848298301340719e+01 3.214225913907270638e+00 -2.409536447636221723e+01
-3.133291634193734865e+01 4.511589057507292111e+00 -2.025484199447581446e+01
-3.323158262644120242e+01 3.490477705476804804e+00 -9.209900923697098563e+00
-3.212207104850718054e+01 4.632009391677113896e+00 -1.518717305896966607e+01
-3.180978662365640730e+01 4.096586197427785514e+00 -9.134759066298222763e+00
-3.184311119811388124e+01 4.180127879935557011e+00 -8.854183446468937291e+00
-3.181822664689968150e+01 4.355362548646908749e+00 -8.587919985804763456e+00
-2.619983580118328703e+01 4.910852772655264431e+00 -2.961928202720432779e+00
-3.684715805327774518e+01 -9.245866378182892475e+00 -4.249578314749627772e+00
-2.361349306074370347e+01 1.041336346886739506e+01 -2.260039634634675565e+01
-3.058125090460296036e+01 -5.097337392635242992e+00 -4.664838534721233110e+00
-2.468166016894352666e+01 1.021156761353108244e+01 -2.268306790791995198e+01
-1.424778404842969692e+01 2.428364493510708488e-01 3.378803812223126091e+00
-2.617552787262882674e+01 7.912018199558265019e-01 -2.468089179543491607e+00
-3.462554503011727292e+01 -1.922994660720103166e-01 -1.471777920614875512e+01
-2.824006302300078275e+01 8.105747051023408645e+00 -1.712512285462608119e+01
-3.482893314104234150e+01 -2.872792445457868826e+00 -3.263971602189446042e-01
-3.874285320877612548e+01 -9.044856104495901050e+00 -4.741816084727576985e+00
-3.320964849845167066e+01 4.538668334858321884e+00 -1.363598252839966563e+01
-3.394946492325222209e+01 -7.287284227095327083e+00 -3.019278787099336725e+00
-3.200270137863808628e+01 -6.469039337389789424e+00 -4.454726760056296087e+00
-3.242455205698875176e+01 -6.416528600865209597e+00 -4.671303871362883164e+00
-2.211350194647420508e+01 1.162521659294701237e+01 -2.316131963295771001e+01
-3.774279890387949621e+01 -8.371482027419537175e+00 -2.323910475293977651e+00
-3.473746589924590467e+01 -7.827275902308910460e+00 -3.119629038117639475e+00
-3.392302807377237173e+01 -7.531305959055540455e+00 -2.695162689189489313e+00
-2.812382459248993882e+01 8.444276060475958801e+00 -1.851150868752551304e+01
-3.830480861309361984e+01 -7.897389951587530987e+00 -2.424390931142253347e+00
-3.194799404015513034e+01 4.404140996873403324e+00 -1.617960345897621011e+01
-3.188754139504578689e+01 4.154804923547210649e+00 -9.132512162321148708e+00
-3.324567324636495869e+01 3.475171914085937619e+00 -9.274361682907422022e+00
-2.803942035165783864e+01 4.173560268903248271e+00 -1.490493101802856213e+00
-3.635917032651662595e+01 -2.190763011766237334e+00 -2.693807907571811100e+01
-3.635814009058521634e+01 -6.735480464072423068e-01 -2.116047066763514195e+01
-3.345485686795535685e+01 -6.251244202627450619e+00 -5.816949473787644820e+00
-3.760822068962794873e+01 -7.001425638633032023e+00 -8.061923807599338687e+00
-3.381675473951715816e+01 6.836188160708611683e-01 -1.254067038543249168e+01
-3.237057354028581813e+01 1.934948037251253083e+00 -6.384332675367508259e+00
-4.054769294232665544e+01 -3.668797509951674751e+00 5.999602499681432333e-01
-3.309292208172590222e+01 6.462846341107502113e-01 -1.064012449957589013e+01
-2.452812529303059819e+01 2.847274040168740861e+00 1.581932969808037548e-01
-3.318529428044915619e+01 4.244999508561635437e-01 -1.099362681826207577e+01
-2.405711486857268966e+01 2.197375908374684439e+00 -8.981072961162261947e-02
-3.438087726408201661e+01 -6.527774744101249027e-01 -9.806192518223006971e+00
-2.391161422519664370e+01 1.633541451994081850e+00 7.519419421521078561e-02
-3.442911057717989110e+01 -9.630207306315354820e-01 -9.985400483576363229e+00
-2.332792450773639459e+01 1.395275712937356749e+00 2.442944072854936755e-01
-2.348679423704378522e+01 1.189579035161228093e+00 1.255547833526888812e-01
-2.267773284030651126e+01 7.537101904787353313e-01 6.835454260324017595e-01
-2.325143048790562617e+01 6.909171922843703184e-01 4.407558664509458879e-01
-2.143659239750103396e+01 2.168909822714171765e-01 7.782496572253596590e-01
-3.200074919230497272e+01 -1.569189706890052882e+00 -4.701137389964719304e+00
-2.129160532500707603e+01 3.047585243219416151e-01 1.289128225179467790e+00
-2.168157030227030901e+01 -5.238661784044762459e-02 1.386591943436267238e+00
-2.046959062047438849e+01 -1.112096277009251288e-01 1.110861935622763363e+00
-1.987955706238517095e+01 -3.492132984087022995e-01 2.717824628543598742e+00
-2.097014211715206145e+01 -1.228098602198674838e+00 -8.828575404753680189e-03
-2.589321748545225432e+01 -1.146775112056504398e+00 -1.154609448107198677e+00
-4.990341256639149847e+00 6.810725568845268363e-01 2.943536662997038533e+00
-2.120319469548388014e+01 -4.396381670186401136e-01 2.012086756268530507e+00
-2.897947270419960120e+01 -2.127495613453192824e+00 -2.333413077725621676e+00
-1.875060914062354911e+01 -5.298306276197179976e-01 7.095423012784592975e-01
-2.083816648048845011e+01 -3.130664639213707190e-01 2.115260857310890863e+00
-1.975422751364553164e+01 -1.045224643555836552e-01 2.578974288444898733e+00
-2.166408891041334073e+01 1.128596892059984924e+01 -2.336038058932929928e+01
-2.215560004455047860e+01 1.120078308366185915e+01 -2.312281841577638630e+01
-2.217495532938037428e+01 1.100198540265110658e+01 -2.304598716825620031e+01
-2.309320826023163065e+01 1.123947171341356821e+01 -2.302885308895174532e+01
-2.211557768218230891e+01 1.055240613054585808e+01 -2.339567405804091038e+01
-2.239734518590610790e+01 1.035811729450935026e+01 -2.353981907883072111e+01
-1.418637117030240091e+01 7.862548905473657479e-01 3.591717856329728953e+00
-2.324927377926786676e+01 1.090121712606931226e+01 -2.287195146579464478e+01
-3.083202901299971899e+01 -9.856946669648805059e-01 -1.494087834495001044e+00
-2.340463236518572288e+01 1.063943759996726257e+01 -2.287626962111811579e+01
-2.400792178008413202e+01 1.089572565476838228e+01 -2.282315110006422287e+01
-2.342094087880521158e+01 1.032377034060554166e+01 -2.274674631899241817e+01
-3.225239359758866442e+01 -6.701804873449042077e-01 -5.157440880048324239e+00
-2.631351887554316704e+01 2.149577572078295029e-01 -2.475618183845420539e+00
-2.388021106035086305e+01 1.027776174600264625e+01 -2.257637021177864511e+01
-3.346228592834130211e+01 8.743808340624859010e-02 -5.137953867053034251e+00
-3.186263688399095173e+01 2.414427945780859286e-01 -4.414055554599573661e+00
-2.482133289061597026e+01 1.059295801035682771e+01 -2.252273238102855757e+01
-4.184724111321774842e+01 1.168160714355895635e+00 -2.754127114001436727e+00
-2.848837727632983174e+01 6.070985407680822288e-01 -3.099683673037997522e+00
-2.311202421807909957e+01 1.191202707556291651e+00 -3.653073244254698704e-01
-2.423788674365194851e+01 1.021954896222477416e+01 -2.269468828659736204e+01
-3.738527541258753217e+01 -4.864738306178283622e+00 -5.519537833250272918e+00
-2.521248528014709223e+01 1.037012435210385597e+01 -2.231835985394370780e+01
-2.468890743759206785e+01 9.830406664316830856e+00 -2.234634973834715410e+01
-3.311597847047676879e+01 1.016049558836223055e+00 -5.240616646409029578e+00
-2.384088124879544068e+01 8.950342189717456876e+00 -2.422434939921616603e+01
-3.307441616607759727e+01 1.311746434095570457e+00 -5.451558806830275827e+00
-2.585487739688334230e+01 1.003009741739515803e+01 -2.209993057378619596e+01
-2.412330292275705546e+01 8.612424444585229821e+00 -2.430335898348291224e+01
-2.456952442181028928e+01 8.745010080583524470e+00 -2.421861095774045936e+01
-2.614274440082256845e+01 2.163436298040609884e+00 -1.388607994808897406e+00
-2.544145739670711848e+01 9.138073449279680460e+00 -2.285967329668265791e+01
-2.654190258564899096e+01 9.712011279457165358e+00 -2.177342897133781463e+01
-2.542747531363200153e+01 8.628899129821084202e+00 -2.406221737816012762e+01
-2.591581445811487328e+01 9.118816448341037884e+00 -2.188056780630924081e+01
-2.580867949839675646e+01 8.627295490767682651e+00 -2.382808149194920944e+01
-2.532934809160784795e+01 8.178801849053250805e+00 -2.417940504274562485e+01
-2.535404229140007359e+01 8.068440458146849181e+00 -2.468480827778282816e+01
-3.489197184355657555e+01 -4.497291263018999175e+00 -3.573192630562199490e+00
-2.683908857095283906e+01 9.437114026980150783e+00 -2.145215387394668838e+01
-3.469518666768789927e+01 -1.207654796921234786e-01 -1.472759909855078320e+01
-2.647996793403864046e+01 8.394905502820540377e+00 -2.356433921843730772e+01
-2.584696750197789328e+01 7.795939743327320315e+00 -2.375065928070086585e+01
-3.489504994710183894e+01 -5.420224592444712997e+00 -4.928150349603737546e+00
-3.468167115740118334e+01 -5.599468223215426477e+00 -4.823110104699327216e+00
-2.694620200068892046e+01 8.149534111574208595e+00 -2.285306306473739468e+01
-2.555220254731596441e+01 7.276095786400837540e+00 -2.381165966205383810e+01
-3.234523948258884474e+01 2.408184186526117543e+00 -6.407502473677562982e+00
-3.490898865761008807e+01 6.353502434570079682e-01 -1.408911763749470936e+01
-3.620935871752823942e+01 -5.887028641000778606e+00 -4.802730876828595008e+00
-2.779283569650004893e+01 8.555961270507346228e+00 -2.116593418015674999e+01
-3.339661908361473053e+01 -6.163562893028329270e+00 -5.583552097981369755e+00
-3.466757854452178123e+01 8.944211288143314453e-01 -1.394652777449650927e+01
-3.372910591027003591e+01 2.761503184302593450e+00 -7.066279699002532944e+00
-2.742946771972848197e+01 8.111453113992467934e+00 -2.181927153362244454e+01
-2.716241110484757471e+01 7.833920147521901356e+00 -2.246399015864621163e+01
-2.795267858134148753e+01 8.274783811636540420e+00 -2.156056461058784990e+01
-2.807624078525697442e+01 8.952426219413107233e+00 -1.842321855889150228e+01
-2.862879372293616242e+01 8.518666112404906343e+00 -2.072011799739773963e+01
-2.659474455660788195e+01 6.945909709371356655e+00 -2.354643709335126900e+01
-2.581146302838591566e+01 6.490788936448902646e+00 -2.405627708563471501e+01
-2.714486494968374330e+01 7.231233271296179765e+00 -2.286316696474118260e+01
-2.778217366299241675e+01 7.361426430810009691e+00 -2.187395653023369491e+01
-3.661015201290749133e+01 -6.960698722307048669e+00 -3.100426138936590803e+00
-3.290733989282597349e+01 -1.349788017656571748e+00 -2.512472597780272210e+01
-2.714782379700050896e+01 6.706096987148249866e+00 -2.345336147732050591e+01
-2.957769349492145494e+01 -5.737498753605327906e+00 -2.685196141534736292e+00
-2.792550828672663954e+01 7.872599820629798018e+00 -1.948970379246328832e+01
-2.774939286869510013e+01 6.944596460843206032e+00 -2.249046175868219422e+01
-3.996086623293743401e+01 -9.199534606624835575e+00 -8.165868861901731890e+00
-2.718072427085020593e+01 6.515893730647317028e+00 -2.325681760068894022e+01
-2.774337116446686480e+01 7.425480622217870419e+00 -1.999090081087403092e+01
-3.292329217600554614e+01 4.498246475944046807e+00 -8.613025060168578051e+00
-3.201313938752362986e+01 4.413480290314161891e+00 -8.741571968271802717e+00
-2.790041077450529627e+01 7.586576632317314051e+00 -1.909120944867222747e+01
-2.754618196197249347e+01 6.489094596741605159e+00 -2.296756297058736962e+01
-2.829004075762739490e+01 7.137330318800215068e+00 -2.102708128827805822e+01
-2.810985933923781133e+01 6.979782740537538999e+00 -2.138605873200618035e+01
-2.804406547395630867e+01 7.003073545122083132e+00 -2.013870494202749484e+01
-2.825544637641604240e+01 6.596115038025775590e+00 -2.214346902840130582e+01
-3.092280574944399518e+01 4.369351056552337909e+00 -1.394325653828638067e+01
-2.806789846813724765e+01 6.633453205483377246e+00 -2.013479479783386950e+01
-2.669908078143240360e+01 5.337251862762883547e+00 -2.329804346031200168e+01
-3.012429057618330219e+01 2.975423045933553556e+00 -2.417167285644401531e+01
-3.398961711159731891e+01 -7.313712279860922649e+00 -3.018298793698149574e+00
-2.951609789738178335e+01 3.730674631079671233e+00 -2.405116846430477651e+01
-2.968555254706555147e+01 4.814532962893979473e+00 -2.010561188724813420e+01
-2.993276797559245495e+01 3.955876424104911582e+00 -2.417867356384664745e+01
-3.009921351889374819e+01 5.374553647656538757e+00 -2.045517533750572881e+01
-2.821781823206527307e+01 5.851640173267750100e+00 -2.151990300740025219e+01
-2.776788503210174852e+01 6.297190761468215214e+00 -1.953975093507214211e+01
-2.781846778074141113e+01 5.789825100011407599e+00 -2.217108739904826109e+01
-2.809240495779379998e+01 6.676946564753453828e+00 -1.949984851278997766e+01
-3.044157301295241780e+01 3.072568963319662672e+00 -2.313672566815596454e+01
-3.297376380585190248e+01 4.468172014251473811e+00 -1.345101948662662750e+01
-3.331378722216825139e+01 -7.042092615948753576e+00 -3.214944612968507975e+00
-3.246058108865165082e+01 -6.619219404380396909e+00 -4.592889514556955710e+00
-3.292343129183770145e+01 -6.441724462511762894e+00 -4.883704348841603426e+00
-3.426571808752118642e+01 -7.328281067493515266e+00 -2.919294827710954721e+00
-3.788036010803704556e+01 -7.787507046965881585e+00 -2.311608890694109686e+00
-4.119579694840230388e+01 -9.718865332676429603e+00 -6.794437497416502048e+00
-3.671043162685326422e+01 -7.526769826635089089e+00 -2.683795826098440251e+00
-3.035175484278162372e+01 -6.093187607207816825e+00 -2.718012168264130501e+00
-4.087869957403396626e+01 -9.552433026219780743e+00 -8.385482048554351309e+00
-3.549282718094519851e+01 -5.930806947277462271e+00 -1.023946770500614445e+00
-3.190652539393696685e+01 -6.418818473047965156e+00 -4.432890560386510970e+00
-3.363966799560994048e+01 -6.476385767187785802e+00 -5.120728930076980490e+00
-3.504682456095545007e+01 -6.086346332515731206e+00 -3.753942586212591692e+00
-3.321321187988291967e+01 -6.112560023180478197e+00 -5.430565210343471172e+00
-4.062104600026908230e+01 -7.916513902746341813e+00 -9.050703151547590863e+00
-3.803399566675637544e+01 -7.161778137209640960e+00 -8.163706856607404916e+00
-3.565010549100173165e+01 -5.661602653482473713e+00 -4.471278191422168646e+00
-4.323476799262181203e+01 -3.902925162482024479e+00 9.041829606614981696e-01
-3.504826936582636421e+01 -4.467982529218541998e+00 -3.660151586116187516e+00
-2.233921741577756137e+01 -7.377951135307712072e-01 2.519529123596218056e+00
-1.372268266294153349e+01 -5.814400278342310990e-01 9.934631577572475836e-01
-2.032666106695068464e+01 -4.803485635280332344e-01 2.624005018591828442e+00
-4.845739357420605131e+00 6.247003262318586714e-01 2.944593644442360159e+00
-1.800897603240050771e+00 6.411271546147485623e-01 2.298028160666381048e+00
-2.088695165742112536e+01 -2.855033693370040426e-01 2.515642238888222249e+00
-2.820778108408127949e+01 -2.038079063268296576e+00 -2.107487815343554338e+00
-2.021745565245249310e+01 -9.263223205952482164e-01 1.664329543250915311e-01
-2.017858001844280125e+01 -7.950691318716496259e-01 5.686196321939248621e-01
-2.048967830217620545e+01 -1.887059620241797742e-01 2.215053926325234013e+00
-1.895564100919608919e+01 -4.041031324379382728e-01 1.089026583709228113e+00
-2.456915442574763730e+01 -1.228949127718778733e+00 -1.100113965127480498e+00
-1.992208311085012085e+01 6.590479292333373262e-02 2.127743098784036668e+00
-2.134027456180690407e+01 -4.398591622652447963e-02 1.670059426751629772e+00
-1.409668788120749561e+01 7.777720989318867018e-01 3.589732446586099357e+00
-2.196909317039449405e+01 -5.465568443362212037e-02 1.402815198663657004e+00
-3.000118225018779583e+01 -1.008424719246238777e+00 -1.363229962305340326e+00
-2.075253660918754406e+01 -1.541854753199088934e-01 7.185853840480243004e-01
-3.189815557492588738e+01 -1.535361228885902651e+00 -4.596832605014298245e+00
-2.307620910612682508e+01 7.218800399028055814e-01 5.030748746236861635e-01
-2.707506808274051124e+01 3.885424550856372838e-01 -2.691382901962684926e+00
-2.344498343644821858e+01 1.134376542238370700e+00 1.760568418391932344e-01
-3.190828778653645514e+01 1.699097773575478088e-01 -4.423522856746708420e+00
-2.809387395976451174e+01 5.746053290789133738e-01 -3.012726225123649293e+00
-2.237759230888145368e+01 1.181206095369523812e+00 -1.894316881369886296e-01
-3.410687367638663403e+01 -1.095724315029093621e+00 -9.861868299757873046e+00
-3.278988498374751259e+01 4.715798158701206000e-01 -4.962640494413157022e+00
-3.577179391038265521e+01 -2.034306451794617443e-01 -9.865400277884571523e+00
-3.312752059378701119e+01 1.009107862033604919e+00 -5.190345539936441988e+00
-2.391934966639233906e+01 2.136336624811565166e+00 -1.675690732869328237e-02
-3.572124625029780987e+01 3.383203739821163403e-01 -1.020255672456064389e+01
-2.374959012121340862e+01 2.335404655950481079e+00 -3.767355791475290872e-01
-3.322974017547319647e+01 5.842321524498875762e-01 -1.063836482086835389e+01
-3.228789434089819110e+01 1.887162486837933972e+00 -6.351709639410841213e+00
-2.544835005753337143e+01 2.958226742803720555e+00 -2.924975910728362383e-01
-3.458890841746600131e+01 -1.567789275876526611e-01 -1.472408378867904943e+01
-3.501090277447371335e+01 7.342711929404968085e-01 -1.402701705469208093e+01
-3.370272486327451844e+01 1.038745906369337391e+00 -1.243223023952711159e+01
-2.713183995501235657e+01 3.795982290982256480e+00 -1.034429544766379827e-01
-3.416542151730305932e+01 8.189255524788836560e-01 -1.439576275258437121e+01
-3.638416998856942541e+01 -6.330592808464685639e-01 -2.112893016975090887e+01
-2.801611426512561565e+01 4.110547408915053325e+00 -1.553582925300970530e+00
-3.324589165875470798e+01 -1.450029749515859390e+00 -2.528199566605185922e+01
-3.728210119329339989e+01 7.098643071710928343e-01 -2.182658596718264832e+01
-2.408868515455128545e+01 4.238635844576283063e+00 -1.360731159375501154e+00
-3.286740294372920346e+01 4.276016477006422178e+00 -8.165499650570719581e+00
-3.318780239989979464e+01 4.334408243890118584e+00 -8.730052998831364874e+00
-3.184521812219417569e+01 4.133297976048689648e+00 -9.088601042710898525e+00
-3.265210922352790135e+01 4.373327582606469477e+00 -1.323942040613319548e+01
-3.207635946329891397e+01 4.391714201577381793e+00 -1.615161271782134023e+01
-3.031098654743785659e+01 2.926515659579984607e+00 -2.286200080379224886e+01
-2.991488941557614112e+01 2.808138921277283817e+00 -2.408249008504054700e+01
-3.153988663690451943e+01 4.430781395239384857e+00 -2.031056566260991758e+01
-2.997709687049000138e+01 3.133236856736025366e+00 -2.410182220944579967e+01
-2.877061937536802816e+01 3.149003212619081893e+00 -2.386684046659995673e+01
-2.918459964233758441e+01 4.384172356468975629e+00 -2.018819626034530756e+01
-2.957503062878891598e+01 4.686638963824716342e+00 -2.006696218159370204e+01
-3.068519485235980682e+01 5.242319982485756924e+00 -2.047644104993678482e+01
-2.992897966822238587e+01 5.194657376045695329e+00 -2.033134530488836944e+01
-2.714451016034680109e+01 5.949377807305845423e+00 -1.770418571041010125e+01
-2.825006753342246313e+01 5.840847577337113350e+00 -2.150988189129545347e+01
-2.819677752507822177e+01 6.139442543761719051e+00 -2.143923928830855985e+01
-2.817182299565897807e+01 6.602988395567242819e+00 -1.951744028050498869e+01
-2.688031943268109458e+01 5.350228852606061736e+00 -2.322953764608533334e+01
-2.824453157170512085e+01 6.463330668664246659e+00 -2.079544508973516415e+01
-2.808145208151639949e+01 6.572403787849147250e+00 -2.009182343655054481e+01
-2.755432630729826826e+01 6.057595748298002292e+00 -2.259091858318682000e+01
-2.633867471093077484e+01 5.637865098893103166e+00 -2.358024487967051996e+01
-2.750838770295934665e+01 6.244574740725054696e+00 -2.296933697241250272e+01
-2.792180703147198528e+01 6.513413961854382705e+00 -2.256249182063820413e+01
-2.807979831440053431e+01 7.013022195836889239e+00 -2.140760214184096455e+01
-2.783112444974113586e+01 7.498284205634467625e+00 -1.903972038173831649e+01
-2.787948101425969583e+01 7.427729270800181638e+00 -1.999727209487454260e+01
-2.720470022418425771e+01 6.517595749092247814e+00 -2.319308145080601946e+01
-2.770435646410971131e+01 6.918911682698043464e+00 -2.241946427537459741e+01
-2.733423158413562959e+01 6.830149400286922301e+00 -2.277054704024213905e+01
-2.822397801844189047e+01 7.786515590852591373e+00 -2.035917661181172633e+01
-2.777816377078918109e+01 7.389720957069295437e+00 -2.185601706039033587e+01
-2.814767338075930070e+01 7.937064477316061684e+00 -2.086314383174632425e+01
-2.722707564069067843e+01 7.216059316801253232e+00 -2.286235489629036621e+01
-2.593847820575730623e+01 6.470402205145040497e+00 -2.428340593128692504e+01
-2.822415898686534064e+01 8.196478236554124663e+00 -2.184423109590210998e+01
-2.617017697960835321e+01 7.286713267735517974e+00 -2.372012250035699665e+01
-2.555113352550494454e+01 7.298715330461908124e+00 -2.371503459700300098e+01
-2.718812373209866706e+01 8.548295128912965168e+00 -2.162992128877019482e+01
-2.707016758320733629e+01 8.649349421237849000e+00 -2.224140005454961866e+01
-2.704127706103617612e+01 8.925008632948793874e+00 -2.104780079666185699e+01
-2.597605233339551845e+01 8.078084909789494006e+00 -2.376460018698794130e+01
-2.614613942092074694e+01 8.720519741002176417e+00 -2.258475192575327384e+01
-2.588734535512954338e+01 9.084452085360025464e+00 -2.176576929165225494e+01
-2.586678697335180033e+01 9.008881507449807202e+00 -2.266706513273070200e+01
-2.629799480011047308e+01 9.479685761472939731e+00 -2.158891364674842350e+01
-2.549502179825027781e+01 9.094606624357314928e+00 -2.274822249914599226e+01
-2.589285374472788348e+01 9.897270738863078066e+00 -2.212098048111007387e+01
-2.556715269004969926e+01 9.822811631440925950e+00 -2.233215717502393716e+01
-2.472760033236907873e+01 9.804406480365967624e+00 -2.233821631861932389e+01
-2.422150646826233000e+01 9.359577194499081543e+00 -2.375036116756107418e+01
-2.442011248329460216e+01 9.583208577140217344e+00 -2.323707734323378560e+01
-2.521039760992984569e+01 1.023561271460470579e+01 -2.225782385307041622e+01
-2.449620994626911497e+01 1.005278365052191702e+01 -2.258530685896136703e+01
-2.526458388192983051e+01 1.052304693404099112e+01 -2.242286811744011743e+01
-2.437293876901599532e+01 1.040484129485290765e+01 -2.264816459159666096e+01
-2.348773106272851408e+01 1.056459623700891370e+01 -2.280592700022030428e+01
-2.294841031192266101e+01 1.048902238961696654e+01 -2.294613890843890047e+01
-2.324938055150667537e+01 1.121397894477962787e+01 -2.306365233826275940e+01
-2.251453206690373676e+01 1.089376636838023771e+01 -2.307474608225928847e+01
-2.218660375799280970e+01 1.109959598130930658e+01 -2.305184565103528627e+01
-4.190878519715788997e+01 -1.027038607864799502e+01 -6.581439412027649816e+00
-3.544101553027307006e+01 -7.252777457097225877e+00 -2.767683088017236948e+00
-3.963316895982156751e+01 -9.547517542763875653e+00 -7.898994608583016053e+00
-4.454872631473575950e+01 -7.690772227687560303e+00 2.410971809447737257e-02
-3.288268285944783287e+01 -6.706796557355259480e+00 -4.713329404462023753e+00
-3.491883377702358615e+01 -5.761734526879250140e+00 -1.009211667213305574e+00
-3.598816098833900412e+01 -6.363094355798082802e+00 -3.878689009412801703e+00
-3.415761288504979376e+01 -6.090505519868466777e+00 -4.324437533323128413e+00
-4.020485717780039181e+01 -7.992981412285095288e+00 -8.822465236043690595e+00
-3.860569087196848415e+01 -7.264151174613040496e+00 -8.370643376294690796e+00
-3.133147727465771482e+01 -5.317723437765765837e+00 -4.966003173102071955e+00
-3.572275577490492537e+01 -5.684856457427974519e+00 -4.603229981746967958e+00
-3.479950580560941376e+01 -5.153409210668714380e+00 -3.853956207450159432e+00
-3.392335649035915424e+01 -4.521095285419427512e+00 -3.711626667282982517e+00
-4.372271361942335233e+01 -3.939899676214599911e+00 9.332514249771959314e-01
-3.663972262103991540e+01 -5.153456003834213206e+00 -5.932006365823239591e+00
-3.116106602123466729e+01 -2.256846258173796027e+00 1.503415289114782061e+00
-4.943795456440225777e+00 6.318296619855012786e-01 2.954884148465582783e+00
-2.675039254535112576e+01 -2.089968965970005144e+00 -1.612327392982754404e+00
-5.775183699508049884e+00 6.517684248470065889e-01 3.073174371546572914e+00
-2.098499332957020158e+01 -4.765200808707675817e-01 2.011007250969768734e+00
-3.248331054906925086e+00 6.733458178944361494e-01 2.607110430776591770e+00
-2.888439163132878917e+01 -2.138950390117490219e+00 -2.320606291872972182e+00
-2.029229214453877361e+01 -9.363880772452815027e-01 1.466793612710517447e-01
-2.006989062339355812e+01 -7.681662191329396983e-01 6.353710364896503204e-01
-4.676744517321319350e+00 7.201470607750346531e-01 2.894084837300913371e+00
-1.940320666122215698e+01 -5.462806388380143652e-01 6.015351459869652251e-01
-2.588306426480940914e+01 -1.283020984397861497e+00 -1.338136073461117181e+00
-1.880547246343513379e+01 -1.930286771119217315e-01 1.017262762348638550e+00
-2.140925804530649401e+01 -5.560781221895816362e-02 1.692310670812626094e+00
-1.420257106854550599e+01 7.529730085761734415e-01 3.564486135795673416e+00
-2.142672932861761836e+01 -5.255500327647066872e-02 1.365339023366179294e+00
-3.031964309279938874e+01 -1.015985095909008429e+00 -1.443739829466388347e+00
-2.077679945564683806e+01 -1.901111381181672666e-01 5.488035638323072174e-01
-3.024216016835742948e+01 -7.836302234082606066e-01 -1.662509727564760453e+00
-3.196672279028157249e+01 -1.573190790258472305e+00 -4.626611058925790942e+00
-3.009022370159782511e+01 -1.035877155216551770e+00 -3.467331013339265411e+00
-3.215439321283467677e+01 -9.771041283222472451e-01 -4.851750275372224586e+00
-3.016544273539916787e+01 -2.913179288022461622e-01 -3.551062992871875323e+00
-2.269512757963608252e+01 8.245762524041431174e-01 5.431921907148183903e-01
-2.937356116306181519e+01 4.983852767581786747e-03 -3.046813894141870982e+00
-1.825620787380226773e+01 1.495911739261427842e+00 2.729300502122281369e+00
-3.182353752078842746e+01 -2.356324872818271743e-02 -4.405794573028395611e+00
-3.031558743186858607e+01 3.856067520273434024e-01 -3.945929023423048854e+00
-2.265852249212755609e+01 1.136827615030853611e+00 -3.702716914932819847e-01
-2.327747212418109513e+01 1.363948341946745524e+00 2.611057465531072541e-01
-3.408315307780463854e+01 -1.076529271745501726e+00 -9.893163759567233484e+00
-3.778281371990662052e+01 -9.268037935294461960e-01 -1.200886517061641712e+01
-3.802529100791276306e+01 -9.279057708481157629e-01 -1.274596184032408175e+01
-3.338824165191559246e+01 9.769229531294796320e-01 -5.348216879872847329e+00
-2.409054385710264867e+01 2.048675628913321223e+00 -8.050720691879886814e-02
-3.556774207390438391e+01 -1.051722300822264922e+00 -1.387871756654659805e+01
-3.597159683437752165e+01 2.533523306557811106e-01 -1.035144860849726456e+01
-3.274997114679540289e+01 1.443872880709620166e+00 -5.378612149486281524e+00
-2.614237531409655801e+01 2.206271194220031262e+00 -1.431209390530162384e+00
-2.336452413024584374e+01 2.595130137901803025e+00 2.809075259881391728e-01
-3.250385514108167939e+01 -6.229892504668155251e-02 -1.218477552671799558e+01
-3.321377991277867636e+01 6.568955225580572765e-01 -1.059435010110964726e+01
-3.388886952852151779e+01 -5.826594059309508911e-02 -1.455110451041250386e+01
-3.775348414103783057e+01 -1.132859838629954874e-01 -1.694487942960008553e+01
-3.222657035902801681e+01 2.335816451352377143e+00 -6.275623581162907527e+00
-3.480940664398017503e+01 6.059521703287912286e-01 -1.396341916977094399e+01
-3.154996545773648364e+01 1.248055861051910576e+00 -1.042032080220346302e+01
-2.660774287258186277e+01 3.648436892670100740e+00 -5.539053059178145055e-02
-3.385271357171220075e+01 1.088420805854164453e+00 -1.254049023492319037e+01
-3.417347896998975898e+01 7.594734550092326897e-01 -1.437757483216088517e+01
-3.408497881159093623e+01 1.111320181309772170e+00 -1.446875620111933358e+01
-2.810327327869472924e+01 4.253222818033432162e+00 -1.723057466337309052e+00
-3.330711278686793975e+01 -1.483590085752678034e+00 -2.520147841210564366e+01
-3.593863744089210854e+01 1.833471181415232909e+00 -1.575041486843620930e+01
-3.392308137286284619e+01 3.495226168803581945e+00 -8.705036431601918423e+00
-2.831263045349291829e+01 4.764532685150037139e+00 -1.128638666250302514e+00
-3.713404629263231271e+01 7.222853318073350071e-01 -2.182308203923522072e+01
-4.186214733636020213e+01 5.080304455522661300e+00 -1.432360526040676874e+01
-3.273913380621034008e+01 4.432801478474257095e+00 -1.332667136475549441e+01
-3.043154258109012744e+01 4.382857184593442312e+00 -1.354370751468109191e+01
-3.203297280695237248e+01 4.427551584988254518e+00 -1.621196331424502546e+01
-2.997771619733673631e+01 2.728815738606034547e+00 -2.409486752830613554e+01
-3.119109557546774170e+01 4.467674422124215283e+00 -2.025654844559736034e+01
-2.980437800570724249e+01 3.864239075951414470e+00 -2.384727758424850563e+01
-2.924775498573562160e+01 7.272106983502398592e+00 -1.210966794977749572e+01
-2.723735498200050742e+01 5.993341836789618071e+00 -1.777555860540032029e+01
-2.817174980652139027e+01 6.602974265479254257e+00 -1.951738881942788240e+01
-2.681539562054459935e+01 5.350277849686884579e+00 -2.324427447033922789e+01
-2.821084374045405951e+01 6.469276513321236877e+00 -2.084119678300031708e+01
-2.734767903234538267e+01 6.062610076512934043e+00 -2.260544457672213881e+01
-2.807824257899952158e+01 6.944503628776869775e+00 -2.017939349215258460e+01
-2.628433643260677499e+01 5.759627787555839262e+00 -2.359231133227855892e+01
-2.747512363193047591e+01 6.368344399552043456e+00 -2.303183520661582051e+01
-2.774796177540476805e+01 6.975415290323201845e+00 -2.250828625347682177e+01
-2.828290345905264758e+01 7.914118776500799868e+00 -2.031804293614302281e+01
-2.761059387223901496e+01 7.438620438953781999e+00 -2.261416482108722192e+01
-2.657998133489586579e+01 6.978157463015520534e+00 -2.341356643829923456e+01
-2.705614216851873266e+01 7.349023862265664064e+00 -2.276270939045226527e+01
-2.863874326003411142e+01 8.511960607065212514e+00 -2.078439697214026793e+01
-2.809060529659709005e+01 8.408871735880671494e+00 -2.098978708757224254e+01
-2.806017706219122587e+01 8.943507050960658233e+00 -1.868087474370484813e+01
-2.557748243475450778e+01 7.330578957807160734e+00 -2.375119410884919446e+01
-2.697893933079579298e+01 8.187368307208069851e+00 -2.288281757054304677e+01
-2.719679518320051059e+01 8.737868481178256985e+00 -2.249915056275100156e+01
-2.714807150334211627e+01 9.065479401338215837e+00 -2.104878280187044837e+01
-2.643318932300308433e+01 8.286171245737662616e+00 -2.369214124542690669e+01
-2.598799654838671458e+01 8.838127966373383160e+00 -2.264765638578603912e+01
-2.593348731613203029e+01 9.144212290704270885e+00 -2.198235091196949043e+01
-2.548531325983169538e+01 9.084586321736008330e+00 -2.276828946074590831e+01
-2.599788729100768947e+01 9.530915165171075287e+00 -2.200445153701423351e+01
-2.541681362967164404e+01 9.826619295909583940e+00 -2.247747989016303904e+01
-2.455796702833574585e+01 9.655443888680157016e+00 -2.270155443589417033e+01
-2.487352857544509277e+01 9.921026853517689759e+00 -2.231080282968178352e+01
-2.414593471655394552e+01 9.379341384827798223e+00 -2.372958500240828172e+01
-2.468121565133033712e+01 1.024907264205181434e+01 -2.268784318328934901e+01
-2.307203098591512713e+01 9.826444656410517453e+00 -2.271701988992771959e+01
-2.394468892620425748e+01 1.037527322242928385e+01 -2.255837238324032512e+01
-2.344191736240607327e+01 1.023087703169561635e+01 -2.265083001458907574e+01
-2.348281967243289614e+01 1.071353191435770924e+01 -2.289828775393468163e+01
-2.285979707197073196e+01 1.047621415786951005e+01 -2.301746039521747633e+01
-2.258623560248531348e+01 1.113073435075147621e+01 -2.309287387959259519e+01
-3.590641439788406331e+01 -7.326173820246877355e+00 -2.752070628762648852e+00
-3.951992477830472694e+01 -9.267113999750298703e+00 -7.918701161523524767e+00
-3.102332797876204040e+01 -5.914468739725535329e+00 -3.127578014434853060e+00
-3.461717904417699998e+01 -5.666163374643186756e+00 -1.352637315323312439e+00
-3.542660906629636486e+01 -6.225924477489691355e+00 -3.886756013036142932e+00
