3.283896446228027344e-01 5.554179668426513672e+00 3.451345062255859375e+01
6.799359798431396484e+00 -5.358688354492187500e+00 3.633795547485351562e+01
-8.873747825622558594e+00 9.770545959472656250e+00 3.099623870849609375e+01
1.531977081298828125e+01 -1.138396167755126953e+01 2.962569427490234375e+01
1.537167358398437500e+01 -1.116062355041503906e+01 3.041588401794433594e+01
-1.287767028808593750e+01 5.684465885162353516e+00 3.449351882934570312e+01
1.600780105590820312e+01 -1.087698459625244141e+01 3.060947036743164062e+01
1.479914188385009766e+01 -1.076339435577392578e+01 3.184053039550781250e+01
1.566305637359619141e+01 -1.084699821472167969e+01 3.208979797363281250e+01
1.382183265686035156e+01 -1.036286067962646484e+01 3.173686599731445312e+01
1.339585018157958984e+01 -1.021357250213623047e+01 3.243597793579101562e+01
1.435229587554931641e+01 -1.010152149200439453e+01 3.207677459716796875e+01
1.492603874206542969e+01 -9.986330986022949219e+00 3.171222877502441406e+01
1.505436515808105469e+01 -9.585249900817871094e+00 3.159840393066406250e+01
1.561986351013183594e+01 -9.482906341552734375e+00 3.126191711425781250e+01
1.596238994598388672e+01 -9.106453895568847656e+00 3.121274566650390625e+01
1.387475013732910156e+01 -9.359777450561523438e+00 3.272110366821289062e+01
1.447529029846191406e+01 -8.708372116088867188e+00 3.240253829956054688e+01
1.628189849853515625e+01 -8.369233131408691406e+00 3.183990287780761719e+01
1.609325218200683594e+01 -7.819911003112792969e+00 3.184782028198242188e+01
1.648697853088378906e+01 -7.161987781524658203e+00 3.221235656738281250e+01
1.374617099761962891e+01 6.989735364913940430e-01 3.424677658081054688e+01
1.528693103790283203e+01 -1.023793339729309082e+00 3.243634033203125000e+01
1.649116706848144531e+01 -1.425053238868713379e+00 3.300070571899414062e+01
1.541747283935546875e+01 -1.790197134017944336e+00 3.272436141967773438e+01
7.814553260803222656e+00 -1.979995846748352051e+00 3.614680862426757812e+01
1.630756950378417969e+01 -6.097443580627441406e+00 3.151858711242675781e+01
1.646163177490234375e+01 -1.993296861648559570e+00 3.293714904785156250e+01
1.686581802368164062e+01 -2.667428970336914062e+00 3.189399719238281250e+01
1.595249938964843750e+01 -2.788871288299560547e+00 3.119058799743652344e+01
1.002519416809082031e+01 -3.019375085830688477e+00 3.374837875366210938e+01
7.300168991088867188e+00 -5.560315132141113281e+00 3.495051574707031250e+01
1.027282428741455078e+01 -3.365371227264404297e+00 3.330344009399414062e+01
3.699762105941772461e+00 -3.744739770889282227e+00 3.702000045776367188e+01
9.904842376708984375e+00 -3.879089832305908203e+00 3.275287628173828125e+01
1.621166419982910156e+01 -4.249830245971679688e+00 3.133123397827148438e+01
6.359729290008544922e+00 -4.388830661773681641e+00 3.528834152221679688e+01
-5.732641696929931641e+00 8.330307006835937500e+00 3.237631607055664062e+01
-4.236760616302490234e+00 8.505740165710449219e+00 3.233548736572265625e+01
-7.721864223480224609e+00 1.019801139831542969e+01 3.066833305358886719e+01
-9.157834053039550781e-01 6.143996238708496094e+00 3.373851394653320312e+01
1.502089595794677734e+01 -1.138365268707275391e+01 2.875526237487792969e+01
-8.497811317443847656e+00 8.856010437011718750e+00 3.157359313964843750e+01
1.370674610137939453e+01 -2.836933434009552002e-01 3.322064590454101562e+01
8.034483909606933594e+00 -9.127053618431091309e-01 3.527856063842773438e+01
1.251739692687988281e+01 -6.693962574005126953e+00 3.263521575927734375e+01
-8.655255317687988281e+00 9.199227333068847656e+00 3.149596023559570312e+01
-7.864037513732910156e+00 8.406270027160644531e+00 3.194830703735351562e+01
1.154096126556396484e+01 -6.322250843048095703e+00 3.366311645507812500e+01
-4.991872310638427734e+00 7.972868919372558594e+00 3.244221115112304688e+01
1.092478370666503906e+01 -4.006314277648925781e+00 3.082062530517578125e+01
1.203652954101562500e+01 -6.817802429199218750e+00 3.233339691162109375e+01
-6.985813617706298828e+00 8.642357826232910156e+00 3.214122772216796875e+01
-4.295496940612792969e+00 7.695270538330078125e+00 3.285725402832031250e+01
2.632790565490722656e+00 -2.487818479537963867e+00 3.736413192749023438e+01
-4.553534984588623047e+00 8.957602500915527344e+00 3.194614601135253906e+01
-9.021629333496093750e+00 7.677175521850585938e+00 3.278387451171875000e+01
1.210421752929687500e+01 -6.104952335357666016e+00 3.355326080322265625e+01
1.615224456787109375e+01 -3.962352275848388672e+00 3.193301963806152344e+01
-6.977426052093505859e+00 9.681090354919433594e+00 3.129129219055175781e+01
-4.677880764007568359e+00 7.505867004394531250e+00 3.286183929443359375e+01
-6.083465099334716797e+00 8.677278518676757812e+00 3.227180862426757812e+01
-6.604466438293457031e+00 8.813610076904296875e+00 3.208869552612304688e+01
-6.849186897277832031e+00 7.018877506256103516e+00 3.325792694091796875e+01
-8.395400047302246094e+00 7.026216983795166016e+00 3.329402923583984375e+01
7.190388679504394531e+00 -5.006288528442382812e+00 3.533471298217773438e+01
-4.877767086029052734e+00 1.836142063140869141e+00 3.731338119506835938e+01
-1.861022472381591797e+00 1.833439946174621582e+00 3.726577377319335938e+01
-7.971976280212402344e+00 6.571577072143554688e+00 3.393201065063476562e+01
-2.889730691909790039e+00 2.217581510543823242e+00 3.653343963623046875e+01
-1.716381072998046875e+00 6.212862968444824219e+00 3.411943435668945312e+01
1.162139225006103516e+01 -5.975026130676269531e+00 3.390060043334960938e+01
-7.466144084930419922e+00 6.243254661560058594e+00 3.428871917724609375e+01
-2.490197658538818359e+00 2.885651826858520508e+00 3.695770645141601562e+01
-6.412426948547363281e+00 9.827466964721679688e+00 3.118147850036621094e+01
-1.716530680656433105e+00 5.625676155090332031e+00 3.414572525024414062e+01
-9.713939666748046875e+00 8.785303115844726562e+00 3.197971725463867188e+01
-5.192519664764404297e+00 9.890213966369628906e+00 3.138520050048828125e+01
1.461548995971679688e+01 -4.138618946075439453e+00 3.185057640075683594e+01
1.098676300048828125e+01 -4.504825115203857422e+00 3.317406082153320312e+01
-4.180288314819335938e+00 7.044726371765136719e+00 3.338368225097656250e+01
-5.104247093200683594e+00 5.868996143341064453e+00 3.441203308105468750e+01
-5.835460662841796875e+00 5.803707599639892578e+00 3.403165817260742188e+01
-2.339803457260131836e+00 4.921180248260498047e+00 3.473534393310546875e+01
-5.156081199645996094e+00 5.122543334960937500e+00 3.474925231933593750e+01
-5.328593254089355469e+00 5.495493412017822266e+00 3.456775283813476562e+01
1.261002540588378906e+01 3.573408365249633789e+00 3.337379455566406250e+01
4.145991802215576172e+00 8.651329040527343750e+00 3.217936325073242188e+01
-7.125397682189941406e+00 5.690743446350097656e+00 3.454720687866210938e+01
-6.651259422302246094e+00 4.985855579376220703e+00 3.520941543579101562e+01
-8.017088890075683594e+00 3.505042076110839844e+00 3.677767181396484375e+01
-4.199603080749511719e+00 4.565221786499023438e+00 3.510445785522460938e+01
1.160242080688476562e+01 -5.378626823425292969e+00 3.384692001342773438e+01
5.382829666137695312e+00 3.649436235427856445e+00 3.410940933227539062e+01
1.560738563537597656e+01 -5.812772750854492188e+00 3.195612907409667969e+01
4.989480972290039062e+00 3.847800016403198242e+00 3.412172698974609375e+01
6.720918178558349609e+00 -5.322766780853271484e+00 3.609612655639648438e+01
1.432556056976318359e+01 -5.905182838439941406e+00 3.245024108886718750e+01
1.374407100677490234e+01 -6.084761619567871094e+00 3.240721893310546875e+01
9.228231430053710938e+00 -1.319866299629211426e+00 3.521128463745117188e+01
1.553760910034179688e+01 -1.129687881469726562e+01 3.059571647644042969e+01
1.464130592346191406e+01 -1.000890350341796875e+01 3.189953613281250000e+01
1.312418460845947266e+01 -9.939409255981445312e+00 3.313666152954101562e+01
1.544952392578125000e+01 -9.511539459228515625e+00 3.172065734863281250e+01
1.387475013732910156e+01 -9.359777450561523438e+00 3.272110366821289062e+01
1.647970390319824219e+01 -8.480195045471191406e+00 3.198573684692382812e+01
1.589146041870117188e+01 -7.977372646331787109e+00 3.174130058288574219e+01
1.130252361297607422e+01 -7.753796100616455078e+00 3.465681076049804688e+01
1.255253314971923828e+01 -6.756656646728515625e+00 3.221977233886718750e+01
1.281501197814941406e+01 -6.216040134429931641e+00 3.290460205078125000e+01
1.215338420867919922e+01 -6.109780311584472656e+00 3.358024978637695312e+01
1.535945415496826172e+01 -5.652226448059082031e+00 3.107505607604980469e+01
1.182135486602783203e+01 -5.957202434539794922e+00 3.402323532104492188e+01
1.144406032562255859e+01 -4.482828140258789062e+00 3.359268188476562500e+01
6.361695289611816406e+00 -4.470102310180664062e+00 3.528836822509765625e+01
1.481156444549560547e+01 -4.019490718841552734e+00 3.178667831420898438e+01
1.595379257202148438e+01 -4.019347190856933594e+00 3.180960464477539062e+01
5.316278934478759766e+00 -4.353474617004394531e+00 3.638360214233398438e+01
1.001980113983154297e+01 -3.917467117309570312e+00 3.275725555419921875e+01
5.661115646362304688e+00 -4.011486530303955078e+00 3.554909896850585938e+01
3.863783597946166992e+00 -3.906290292739868164e+00 3.693247222900390625e+01
4.827450275421142578e+00 -3.613415956497192383e+00 3.654600524902343750e+01
1.005678558349609375e+01 -3.085115909576416016e+00 3.360754394531250000e+01
1.602983474731445312e+01 -2.855381965637207031e+00 3.112975502014160156e+01
2.812219858169555664e+00 -2.617172956466674805e+00 3.677668762207031250e+01
8.939384460449218750e+00 -2.279582738876342773e+00 3.561576461791992188e+01
8.321909904479980469e+00 -2.063880920410156250e+00 3.616035842895507812e+01
1.520759391784667969e+01 -1.857807755470275879e+00 3.259091949462890625e+01
9.693320274353027344e+00 -1.748707413673400879e+00 3.483440399169921875e+01
1.031358146667480469e+01 -1.520725607872009277e+00 3.522726440429687500e+01
1.652184486389160156e+01 -1.424284458160400391e+00 3.298446655273437500e+01
1.556491756439208984e+01 -1.172441720962524414e+00 3.239315414428710938e+01
8.803944587707519531e+00 -1.032593250274658203e+00 3.513794708251953125e+01
1.383268165588378906e+01 -2.826705574989318848e-01 3.314670944213867188e+01
2.040737628936767578e+00 6.934756040573120117e-01 3.622193527221679688e+01
-1.777145743370056152e+00 1.750452160835266113e+00 3.732991027832031250e+01
-2.752076148986816406e+00 1.955013275146484375e+00 3.636891555786132812e+01
-3.027320384979248047e+00 2.744511842727661133e+00 3.677661514282226562e+01
-2.531059503555297852e+00 2.755135774612426758e+00 3.692733383178710938e+01
-2.036554813385009766e+00 2.779894828796386719e+00 3.725672912597656250e+01
1.516657829284667969e+01 2.507131576538085938e+00 3.355449295043945312e+01
1.576383495330810547e+01 2.490620851516723633e+00 3.331666564941406250e+01
-7.873579502105712891e+00 3.498414278030395508e+00 3.670610809326171875e+01
5.226760387420654297e+00 3.727527379989624023e+00 3.409703063964843750e+01
1.456936740875244141e+01 3.580550432205200195e+00 3.272018051147460938e+01
-4.376825809478759766e+00 4.336729049682617188e+00 3.522657775878906250e+01
-6.591145515441894531e+00 4.838164329528808594e+00 3.532069015502929688e+01
-1.645926356315612793e+00 5.420021057128906250e+00 3.434209060668945312e+01
-7.149803638458251953e+00 5.677450656890869141e+00 3.446787643432617188e+01
-6.348803043365478516e+00 6.083083152770996094e+00 3.405216217041015625e+01
-3.035165071487426758e+00 6.523981571197509766e+00 3.389129257202148438e+01
-4.374643802642822266e+00 7.125629901885986328e+00 3.340049743652343750e+01
-3.214261770248413086e+00 7.114439487457275391e+00 3.334937286376953125e+01
-1.508415126800537109e+01 7.645011425018310547e+00 3.261382293701171875e+01
-4.295494079589843750e+00 7.695269584655761719e+00 3.285723876953125000e+01
-8.840412139892578125e+00 7.909209251403808594e+00 3.280519104003906250e+01
-4.929763317108154297e+00 7.844356060028076172e+00 3.253092575073242188e+01
-9.177642822265625000e+00 8.263223648071289062e+00 3.240489196777343750e+01
-5.576196193695068359e+00 8.249588012695312500e+00 3.235115432739257812e+01
-4.259061813354492188e+00 8.290841102600097656e+00 3.251778030395507812e+01
-6.007055282592773438e+00 8.673356056213378906e+00 3.225781250000000000e+01
-9.706159591674804688e+00 8.815041542053222656e+00 3.195361328125000000e+01
-7.945362091064453125e+00 8.826299667358398438e+00 3.199462318420410156e+01
-1.012290096282958984e+01 9.044126510620117188e+00 3.120919990539550781e+01
-8.465833663940429688e+00 9.334996223449707031e+00 3.146353721618652344e+01
-9.001341819763183594e+00 9.650160789489746094e+00 3.106941604614257812e+01
-8.321244239807128906e+00 1.003393268585205078e+01 3.092666435241699219e+01
-8.084480320918745022e+00 8.329177487081734554e+00 2.176641630728541799e+01
-8.970239769425939258e+00 8.262533347251467930e+00 2.155350694950648816e+01
8.851590286017261278e+00 3.550149302058906553e+00 2.186260298996022300e+01
-5.652669094870595323e+00 4.568198877447613881e+00 2.478555809322833881e+01
-5.274913191743414664e+00 4.564958649487458331e+00 2.480950518384478443e+01
8.613558982629156091e+00 3.054434112022118564e-01 2.221352378568644426e+01
-5.859179323904819547e+00 6.705932053811641813e-01 2.723413274491531055e+01
-7.162744517695529112e+00 8.344001114209884662e+00 2.217174585362480954e+01
-5.963253640662053101e+00 6.717974729464538663e-01 2.722782429991556796e+01
-7.238267251794024304e+00 4.710221521787071097e+00 2.462861357764251125e+01
-8.708650923857208070e+00 8.204914777057618736e+00 2.173540981902152680e+01
-5.808763661896901631e+00 5.101697237228778326e-01 2.722974202652273235e+01
-5.925837386618610481e+00 5.144976982801695575e-01 2.728102316248144277e+01
-5.813438219064166468e+00 4.054942987530211207e-01 2.724506772190008874e+01
7.036086656654710891e-01 -3.105444879401485503e-01 2.592934646804831544e+01
-8.165212542134788976e+00 8.156009266596807805e+00 2.207641709357703164e+01
-1.889219902151492991e-01 -3.035309187434803713e-01 2.571476919702600128e+01
7.995431892427788956e-01 -4.134096696866783605e-01 2.583629031208841553e+01
-8.233700148295138632e+00 8.143277211822573136e+00 2.203640304446855680e+01
7.714029678438857118e+00 -8.372162511851000133e-01 2.190445755612896050e+01
1.527202913136108009e+00 -7.296588409402087194e-01 2.466750178464980081e+01
-6.797858589166780874e+00 8.161596663871016233e+00 2.238419783800402740e+01
-4.392409272166946543e+00 4.996590824564334454e+00 2.447927166838990587e+01
-9.521217488057484246e+00 7.939898371788878251e+00 2.165649774413385842e+01
-1.208139580481907771e+01 5.212291600931007629e+00 2.426211196076599563e+01
-6.550064194506399318e+00 8.129606977234882237e+00 2.242847019884301218e+01
-4.384666861174536301e+00 5.083544222717971905e+00 2.444523086246266175e+01
4.525125050886771305e+00 -1.551789444517810868e+00 2.386342295946886338e+01
4.641581194351808826e+00 -1.597288823538307589e+00 2.376822288186670207e+01
-6.496172931682098195e+00 8.127971328439839382e+00 2.253813386641177630e+01
4.392908439551512778e+00 -1.593771447514639394e+00 2.387443913704753840e+01
4.059115064092057246e+00 -1.688408573408286539e+00 2.408287963255131459e+01
-8.378526466246752236e+00 8.035621889923842076e+00 2.218803037006757606e+01
-6.580571300943281798e+00 8.038521688006001753e+00 2.252801575053740635e+01
4.168392077813364516e+00 -1.730909148349654370e+00 2.391923643611490746e+01
-6.801965363924696639e+00 8.045712111982568970e+00 2.253355744030990238e+01
7.829381058951771166e+00 -1.787031642194159886e+00 1.976527230220936460e+01
-5.087446045575927833e+00 5.229506383483567333e+00 2.420992789885033147e+01
-3.912451362401386579e+00 5.273688361026871441e+00 2.447590882417528846e+01
-6.739759377451385092e+00 7.942696392339499312e+00 2.261276901462738920e+01
-4.402230611808674254e+00 5.287054831455821002e+00 2.430679218354326565e+01
-5.865926779421359427e+00 5.369739177151030773e+00 2.432465830628274617e+01
4.085488065006739333e+00 -2.223710860895354635e+00 2.374692131444416177e+01
8.463006595823850731e+00 -2.171653210953068847e+00 2.043088016476380631e+01
3.540354390020293618e+00 -8.377728425383839550e+00 2.004260870520654692e+01
3.069210356474512125e+00 -8.912559252387096009e+00 2.167894562394604918e+01
-6.251919249681883173e+00 -2.663301100357870155e+00 2.763200513857991680e+01
8.375196946308003376e+00 -2.430446865630981446e+00 2.023703742791375859e+01
7.636429481696389132e+00 -6.924262135961021691e+00 1.644129254551195274e+01
-6.903035728504073987e+00 7.850490889330572486e+00 2.270851935696536827e+01
3.206128533494914112e+00 -8.771835778494867952e+00 2.174444836674119585e+01
8.447210006230722712e+00 -2.431352028104531104e+00 1.924674091771662177e+01
8.380137706338128822e+00 -2.503814050243694300e+00 1.926057799397706560e+01
-5.989929654626287459e+00 5.782392877257851893e+00 2.391969370295577946e+01
-5.798323396432430776e+00 5.817367532977078426e+00 2.389498462233979836e+01
-9.312663571690308117e+00 -1.081705469478906778e+01 2.895050972583690196e+01
-4.846383910446753873e+00 5.820036649134920026e+00 2.398365679048890087e+01
5.571342971555072410e+00 -7.808900824557373888e+00 1.998604989943243737e+01
-7.609112161317001188e+00 7.687947511563502090e+00 2.258123185065162630e+01
-8.506235851946788884e+00 7.680978120057135428e+00 2.250783401533073658e+01
-2.789544803347880020e+00 -3.205368445284094037e+00 2.661113560059933647e+01
-9.468900365475445113e+00 -1.069862765265995641e+01 2.926405404222759188e+01
-4.459790889510888867e+00 5.984629386921224814e+00 2.392881388119561947e+01
-7.999474576239380852e+00 7.603707138415156663e+00 2.256580902124782639e+01
5.144689321428177031e+00 -3.005659901578796145e+00 2.269334202392774458e+01
-9.781179118165679753e+00 7.482529148091938254e+00 2.212466707754406414e+01
-6.863686938044606833e+00 6.161641279708748087e+00 2.373115414516607302e+01
-9.597291765186209744e+00 -1.032400255656854959e+01 2.932997902771450427e+01
-9.758197391139768584e+00 -1.031219238483656397e+01 2.947353004748408623e+01
6.434647109205307025e+00 -7.038215098137770909e+00 1.889904676594627375e+01
6.624117044199254956e+00 -6.987590663011431502e+00 1.873413810623972608e+01
-9.518562868779934405e+00 -1.024679880074872074e+01 2.943759821055494186e+01
8.473355353335753293e+00 -2.866826758106602924e+00 1.924091353288365625e+01
-7.933044613636022646e+00 7.577815451592726959e+00 2.262163412336408541e+01
6.383036249204713464e+00 -7.016243443852935968e+00 1.905749589533476041e+01
-9.362684007788313778e+00 -1.009388971256001533e+01 2.966192464267534490e+01
6.643272252260294941e+00 -6.886522458356936660e+00 1.897805042416950982e+01
6.795743631465529511e+00 -6.831973027252603359e+00 1.880267591279849171e+01
-5.784517375741748069e+00 -3.457236597675439338e+00 2.649700462219773556e+01
-6.325671563444280388e+00 7.589328350008319291e+00 2.300009722120349309e+01
-6.510772825715737788e+00 7.600550765018255106e+00 2.301974235906697785e+01
-6.775591947148867256e+00 7.559568582136229509e+00 2.301061292233065103e+01
-8.636042673800465863e+00 7.422151653206025657e+00 2.250727501161922817e+01
8.606000327563858576e+00 -3.007005077558281503e+00 1.882435783160298115e+01
5.090503451977213878e+00 -3.493854211455513337e+00 2.208858225974877953e+01
7.521906155163196495e+00 -6.206854142713090106e+00 1.811674568600890822e+01
7.734890382037825418e+00 -6.016173092072287787e+00 1.757851234009299901e+01
-5.918185717991050865e+00 7.501281889924873880e+00 2.315157093079734452e+01
-7.295710908411035867e+00 7.463774622152662630e+00 2.295872546441983886e+01
-1.083444362344799927e+01 -9.036487385993345001e+00 2.978887456611316153e+01
8.121369168300420327e+00 -5.728596697562878148e+00 1.725670248567285014e+01
-8.274620403987768213e+00 7.393948383252244128e+00 2.282473951336290341e+01
8.049070995945308837e+00 -5.773856731329710001e+00 1.753154591834336884e+01
-1.070329412328171514e+01 -8.911650447214833903e+00 2.975704540806199105e+01
8.417483625493812127e+00 -5.613548116458728643e+00 1.706537016951404695e+01
4.970020483258070776e-01 -3.908109162796247649e+00 2.566979725791913580e+01
-8.456016680104271543e+00 6.393798818288980890e+00 2.330979982446480392e+01
8.200730649704556896e+00 -5.700831676743960408e+00 1.750110472075820667e+01
8.687993746697776132e+00 -3.264523821171505968e+00 1.918128216115748330e+01
8.143430853480619902e+00 -5.679096704637885296e+00 1.766325291966114364e+01
8.352424147692246947e+00 -5.611849238836637888e+00 1.740614517492351609e+01
-7.956318244966789521e+00 -4.229237028760318928e+00 2.852565125028819537e+01
8.072628277249263462e+00 -5.625155284964281854e+00 1.795529943585168908e+01
-8.217147332053249542e+00 7.332358612739396264e+00 2.290740490981847444e+01
1.208292418658933665e+00 -3.982973001617088116e+00 2.503220530139619981e+01
1.116590415624528987e+00 -3.999362480579295553e+00 2.516809244605325802e+01
-7.147490911922639079e+00 6.503368506788882009e+00 2.347088976911289038e+01
8.018563516694751314e+00 -5.519717779305984173e+00 1.820975507906492297e+01
8.057734476610516339e+00 -5.505240403618082645e+00 1.814656726127653741e+01
-8.075854306620271927e+00 -4.286064468460314636e+00 2.855667454733407595e+01
-9.777378008804197052e+00 -8.037936678084083297e+00 2.945065199019596847e+01
1.480554385891442948e+00 -4.044162939554032832e+00 2.474573340207252414e+01
-7.703732885747781367e+00 6.610789554027419967e+00 2.348846667576405878e+01
-5.387226682298415170e+00 7.255648309810988295e+00 2.338036062047407526e+01
1.700918599621898064e+00 -4.054756058432000820e+00 2.445676388624688258e+01
-8.278226918488780228e+00 -4.493722912513321788e+00 2.849299702471262563e+01
-9.098515714010291688e+00 -7.656115153191252354e+00 2.878035887109089686e+01
-5.520322032772504883e+00 6.629942390845557476e+00 2.370544328361387443e+01
-7.955453929697904769e+00 6.695546798384489406e+00 2.330209998139813266e+01
-7.197643613932521056e+00 -4.703534469239629701e+00 2.795245107995421918e+01
8.098320726120752155e+00 -5.189377698055399613e+00 1.823600386836321974e+01
8.175901656240188942e+00 -5.119496487045474886e+00 1.794329876254620970e+01
-8.095576652235180859e+00 6.706578893344426362e+00 2.318690415879811795e+01
-8.544012035613038236e+00 -7.466337668306273656e+00 2.925298836631468902e+01
-8.318453984437898185e+00 -4.760048244472366186e+00 2.843031258899952007e+01
-6.537739462955352465e+00 6.745816489343655853e+00 2.341666140623762615e+01
-7.281812926664274599e+00 -4.879670945998424436e+00 2.805331845037258276e+01
8.308996916917136488e+00 -5.068430260183772518e+00 1.846491533069454150e+01
-8.438795910361980290e+00 -4.927829223869209407e+00 2.845235225093004061e+01
-8.022602057064357695e+00 -6.739842049405842417e+00 2.850073661797573976e+01
-7.492392451295815547e+00 -5.172896446474296361e+00 2.821186832089969343e+01
5.830418813353942298e+00 -5.155796032246755090e+00 2.110634189575473840e+01
-7.554238654251359542e+00 -5.359802765689152260e+00 2.804083282195044191e+01
-6.368153959654898166e+00 7.063379006524790782e+00 2.329609406275944750e+01
8.385630161984209963e+00 -4.647814765177266771e+00 1.917471081949160805e+01
6.417825886764688903e+00 -5.011194731475243636e+00 2.134697082755101860e+01
3.197513614179499530e+00 -5.124640116775142751e+00 2.401849290929282787e+01
6.534383720999424661e+00 -4.898721994274025882e+00 2.118318547449226230e+01
-7.643217958362050979e+00 -5.969773470505047364e+00 2.814940181293889765e+01
-6.068695294050526989e+00 7.167391114248921724e+00 2.335749414130875579e+01
-5.963484984293931035e+00 7.105217587630059839e+00 2.331061403623981931e+01
5.793343252779803443e+00 -5.021355819953683408e+00 2.124856913676905990e+01
-6.014784317433304217e+00 4.421623985306623261e+00 2.471747036302209821e+01
5.779078676824578764e+00 -4.402635137843603275e+00 2.143352503899345862e+01
-6.707038444325113424e+00 3.957420444250347114e+00 2.527003692658723821e+01
-7.479089916703785867e+00 7.117341801443936689e+00 2.310640112724289352e+01
-6.592340429581279082e+00 7.023651512672039132e+00 2.329353634794408379e+01
-8.872118135960370466e+00 6.940809162435136237e+00 2.288013703738933202e+01
3.680932744311550930e+00 -4.661766368925921888e+00 2.403473231528862186e+01
-3.399743766271101197e+00 3.742664237772474589e+00 2.501288602833438901e+01
5.922429819700221643e+00 -5.260118475752114442e+00 2.102020102927982492e+01
-8.149441836050314691e+00 -6.710152505202534812e+00 2.839107063685675669e+01
-2.856407057488268730e+00 1.329506125238003378e+00 2.632284918001285590e+01
8.229812554021791016e+00 -5.173786223291797270e+00 1.893353140183621974e+01
-6.712424429890950783e+00 6.788002918275753750e+00 2.339342589381232429e+01
-7.111363462006310421e+00 3.877912997708977461e+00 2.531690798804110898e+01
6.126949060556593274e+00 -7.919652875695932792e+00 1.600209590533955506e+01
-6.701386937437802338e+00 6.684658903707594746e+00 2.350221900523041896e+01
8.518386407726811882e+00 -3.558932801685820824e+00 1.916568545289132786e+01
-7.020104470761339144e+00 8.292165186182231196e+00 2.226422399209101144e+01
-7.035872788338364714e+00 3.842779868600663118e+00 2.539762794137915236e+01
-9.672981578099586031e+00 8.095699381603877143e+00 2.161610578432435048e+01
7.549085177994472318e+00 -3.485637059101178714e+00 2.013852830703082120e+01
-3.597463900363519151e+00 4.673713283128512863e+00 2.481218240623907434e+01
-7.609778988791966015e+00 8.196328841491363093e+00 2.220957328584634638e+01
-7.448036477555429968e+00 6.529729365954837661e+00 2.354212813371330881e+01
-7.293152081834051614e+00 4.909364959424443065e+00 2.465594163936017225e+01
-9.098585042588227978e+00 7.287228938819430013e+00 2.246244231714755557e+01
-1.336830739313736860e+00 -3.658160898655700155e+00 2.462954371933784259e+01
7.814329543229453279e+00 -8.786371045215843889e-01 2.182935834425160593e+01
-6.057042757933705168e+00 4.988440429714336766e+00 2.449886313567284901e+01
-5.583116016471252330e+00 4.979986464585263839e+00 2.450398581373571361e+01
-7.658943054013731988e+00 7.476526137337899058e+00 2.284662122298819753e+01
-1.203068477978434103e+01 5.136204674218134869e+00 2.434734307833804934e+01
-7.154389167258927706e+00 7.540684319294022941e+00 2.293498284306769364e+01
-6.729529889690941680e+00 5.022125042867579658e+00 2.437062246789366071e+01
-4.199818025352752393e+00 5.087675300724414207e+00 2.447445803369456030e+01
-4.770032498014082023e+00 3.137955219536565199e+00 2.559169823550984901e+01
-8.520210641391006590e+00 5.839632425966478024e+00 2.359634273949377103e+01
-6.922619006205414038e+00 8.036232475671328146e+00 2.250101035213820921e+01
-4.242475779899274713e+00 5.227243845135684630e+00 2.445778984313039217e+01
-4.773174596411422499e+00 5.748906695026218650e+00 2.407147163444381377e+01
-1.014269464398274323e+01 -1.209177882829230555e+01 2.972634797690256647e+01
7.173496295010997947e+00 -7.310843830254929898e+00 1.681661689091050960e+01
-2.517307534482506881e+00 3.193677606041336769e+00 2.529812860590001478e+01
-5.074245626551856070e+00 3.460798317391381662e+00 2.541012883344184559e+01
-9.457138362035712120e+00 7.719257473373918543e+00 2.208175964947196235e+01
-6.769841121389457150e+00 5.360535539332698107e+00 2.402913024236907802e+01
-9.663205068382238139e+00 7.721102752692264204e+00 2.196336780967289215e+01
-3.102115766302296684e+00 3.345674229386069509e+00 2.528002484362059121e+01
-6.460580653027371056e+00 5.417434340639952772e+00 2.409300015054623856e+01
-6.087021595585061284e+00 7.831355677950519123e+00 2.294595987262490766e+01
-6.302663612133433624e+00 6.465455174673143013e+00 2.370875232782021413e+01
-6.239357044343385894e+00 8.010655280197187977e+00 2.270635512791411514e+01
-6.561127575294855241e+00 8.128252672586425476e+00 2.238015159435713031e+01
-6.115781404256066978e+00 8.169880635186800077e+00 2.264659296035848968e+01
-6.560206448852570205e+00 8.036959256947550756e+00 2.254756964995369017e+01
-8.853486893756109311e+00 7.763913622344954746e+00 2.210262130686697901e+01
-7.580583961196148302e+00 7.816557558202031686e+00 2.259871548976116173e+01
-7.586889759496528107e+00 7.665747763021682815e+00 2.261778460747887465e+01
-6.548070917393093104e+00 7.576915865125032568e+00 2.302556141707155035e+01
-7.224221732919980710e+00 6.600883856844299125e+00 2.345552401231461204e+01
-7.793410393717362439e+00 6.352859068117254537e+00 2.350661165881486525e+01
-7.439166737433212440e+00 6.201040372054222871e+00 2.376416425601336613e+01
-6.823458080731702680e+00 6.127611895614485604e+00 2.374693039998167521e+01
-6.547451075324005387e+00 6.070236591892357758e+00 2.375563974605595163e+01
-4.478637636159541024e+00 5.965767176592239096e+00 2.392761644405804944e+01
-7.499106985104970313e+00 5.928691841087765368e+00 2.377598865347282242e+01
-5.859487956511467033e+00 5.814461786860592341e+00 2.388008402528705787e+01
-4.213641531969053666e+00 5.602475470814202829e+00 2.426643343728526148e+01
-9.702495750201514113e+00 -1.098122006752804580e+01 2.924431923133154498e+01
-9.364701778832174028e+00 -1.084761509622794229e+01 2.903875103042332739e+01
-3.962986004123037365e+00 5.187697783504232163e+00 2.443307959848717203e+01
-1.208139580481907771e+01 5.212291600931007629e+00 2.426211196076599563e+01
-4.372303932431367279e+00 4.975106926158316512e+00 2.447127926307980772e+01
8.524422270939439272e+00 4.063631847207336278e+00 2.203421106590738532e+01
-9.728406260189064625e+00 -1.080750131000617387e+01 2.933583416249625841e+01
-9.518360635310404660e+00 -1.066959027712946373e+01 2.931399862022874458e+01
-1.800437021425227657e+00 3.664885329539613767e+00 2.473916255728708435e+01
-1.921198472034823190e+00 3.621109843093679448e+00 2.480230568913171041e+01
6.586687126303838902e+00 -7.106198518109422047e+00 1.870326709735433468e+01
9.472162377666011324e+00 2.431728710319013498e+00 2.173637782895173132e+01
-1.366944015672627977e+01 2.634819747456057737e+00 2.473065977739245724e+01
6.810156665557429712e+00 -6.952599491866443771e+00 1.837253643660603331e+01
-9.776892082069323919e+00 -1.031897289051921085e+01 2.949468960389851091e+01
6.615393703638723366e+00 -7.000126376809506112e+00 1.877168970314188456e+01
-9.542999953237456978e+00 -1.022611264410109477e+01 2.941021903584141484e+01
-9.408337838756949623e+00 -1.009355475225308041e+01 2.962853805723786138e+01
-1.228142021014485685e+01 2.247051624070925069e+00 2.508787519767550478e+01
-9.451171220693911579e+00 -9.863207630370274259e+00 2.977340490742981061e+01
7.386272461020069180e+00 -6.345177902689108862e+00 1.801133288263139320e+01
-1.258356831342153015e+01 2.123346923997353031e+00 2.555660908558063937e+01
-1.323105836334337049e+01 1.874776227107884718e+00 2.658484060827183981e+01
6.086953808203613647e+00 -6.688011209010109148e+00 1.961925100415520973e+01
-1.138916678315660747e+01 1.147261730158921633e+00 2.735545704546288093e+01
7.513151145283441856e+00 -6.212306298596974585e+00 1.811230495334719848e+01
7.636353604892654801e+00 -6.071190292842797653e+00 1.790901681046905125e+01
-1.146083040210883475e+01 9.639738856475769113e-01 2.751261721866048404e+01
-1.071733629811601496e+01 -9.121353061659904782e+00 2.985067657620967907e+01
7.908246407296218194e+00 -5.919986499259835888e+00 1.779087289604764877e+01
8.042055842009956379e+00 -5.770887957509935440e+00 1.754481026583846770e+01
-5.831924444802641716e+00 5.322778784153548992e-01 2.724070602689544884e+01
8.138906745296882406e+00 -5.686510272527378618e+00 1.766732865057828405e+01
8.382544659873925497e+00 -5.648632897878148817e+00 1.751456875408522151e+01
8.352763213585129520e+00 -5.518980636223144387e+00 1.719168654382675854e+01
8.371028663547019022e+00 -5.521833910915905363e+00 1.748358288991049747e+01
8.026324805483405100e+00 -5.653357666751554156e+00 1.814247565020166419e+01
8.082791285525960490e+00 -5.641958730844287118e+00 1.809052537511223235e+01
-1.022054461780599866e+01 -8.090710838198308608e+00 2.987081106002788644e+01
-9.369050350994379883e+00 -7.879802558391822309e+00 2.899524121787706576e+01
7.561392030881446402e+00 -7.413564382900267313e-01 2.222179598155218727e+01
5.036211211330009263e+00 -6.032065608508245802e+00 2.095913873440996156e+01
7.706698971858747527e+00 -8.454339285866986353e-01 2.190771471377699342e+01
7.756562934360302641e+00 -1.589934326188771951e+00 2.020084950845780369e+01
4.139547688488265820e+00 -1.714003489004030545e+00 2.396589917981338402e+01
4.051626773533091530e+00 -1.716854477196287476e+00 2.409968573142877801e+01
-9.095661172464135191e+00 -7.632088399143349022e+00 2.877269311221907699e+01
8.010288173848181259e+00 -1.835082556666167042e+00 1.947107793484985550e+01
7.834360192490380292e+00 -1.839699166188745405e+00 1.959075658466195335e+01
8.099651993335552191e+00 -5.182542956513073840e+00 1.820724378384223741e+01
8.203578387825496421e+00 -1.883689828098760177e+00 1.951477253959226843e+01
8.000680492748196926e+00 -1.963260665089605617e+00 1.935038538174291034e+01
4.088174614682437813e+00 -2.249534519023069556e+00 2.371401643812943405e+01
-7.452129681298706565e+00 -2.654127386561635049e+00 2.791677248354773155e+01
-6.291946713418720805e+00 -2.711491681902801876e+00 2.770275275396841153e+01
-7.918843856270587622e+00 -6.471362113186192921e+00 2.817994577216343544e+01
8.331364752895375148e+00 -2.435861122593899530e+00 2.031842244817406851e+01
8.379141022884999401e+00 -2.539282277715976477e+00 1.934392080409667258e+01
8.649172487350570648e+00 -2.633280932646191896e+00 1.936933272860949273e+01
-5.907819666493952404e+00 -3.152356735289486789e+00 2.686439999955271318e+01
6.569841508811955499e+00 -5.050329449741809640e+00 2.095799756452881013e+01
-2.780340468541039112e+00 -3.236730714831156597e+00 2.660599934517256671e+01
6.408662992658724633e+00 -5.033183167756086540e+00 2.137469203230039128e+01
5.134321929302384291e+00 -3.036593291337647660e+00 2.265096648818176917e+01
6.544278895780410110e+00 -4.895219139679457321e+00 2.116336099025370032e+01
-7.656889152540538035e+00 -5.960592895556225734e+00 2.816102035323637054e+01
-5.778431577905148941e+00 -3.310969021772956378e+00 2.656738136122281091e+01
-7.741799391540689079e+00 -5.801509466288291783e+00 2.801309053780158820e+01
8.491181257458636722e+00 -4.493220508583806172e+00 1.986897608390444958e+01
8.483948237987812391e+00 -4.404690793042224328e+00 1.941048109126521481e+01
5.172605838288683699e+00 -3.161062687410009620e+00 2.235837050627127454e+01
3.197542449683473009e+00 -5.010045728421034461e+00 2.399505784380839302e+01
8.611586462158106414e+00 -3.024126939427744354e+00 1.891650532990388456e+01
5.141773928517854308e+00 -3.379658115944176977e+00 2.202085835969824501e+01
5.067751220094798725e+00 -3.491091471143418890e+00 2.213804828946960512e+01
4.970020483258070776e-01 -3.908109162796247649e+00 2.566979725791913580e+01
-7.964284022144257236e+00 -4.258925937982229293e+00 2.859132108019021956e+01
8.774317309322711367e+00 -3.402667305295925537e+00 1.919604569164849295e+01
1.454467915713437254e+00 -4.044083952351572364e+00 2.481398452144151889e+01
-8.279211635076595854e+00 -4.444159503394760513e+00 2.853508663521243705e+01
-8.067038015314444976e+00 -4.572000808512642678e+00 2.848440772137407251e+01
-8.275915086168009083e+00 -4.640057649970890985e+00 2.851474246614338171e+01
-7.197643613932521056e+00 -4.703534469239629701e+00 2.795245107995421918e+01
-8.380529641002397057e+00 -4.757749609978718652e+00 2.841567831387067855e+01
-3.682860677382895354e+00 3.932298808814069790e+00 2.505528194052057955e+01
-7.040915448185071313e+00 8.295526094381669324e+00 2.224938448030186322e+01
-5.080344392258576036e+00 3.118064330369121340e+00 2.561205720087835047e+01
-7.333742895879397317e+00 4.238970668200685132e+00 2.502934913620678969e+01
-2.971901194413338665e+00 2.676047225378722416e+00 2.574905772794364722e+01
8.468820974268828294e+00 -3.579139673811280176e+00 1.914266466268824729e+01
-3.520769913957161990e+00 4.630928753307226309e+00 2.480334793077103583e+01
1.235577317401833186e+00 -4.009914822246749111e+00 2.501407618450084769e+01
-3.508634092905181578e+00 4.790889276677020803e+00 2.474256882590809425e+01
-3.072111865354250071e+00 1.361237568406142184e+00 2.642111453615452277e+01
5.769863768131249238e+00 -4.394320627056235828e+00 2.143060804972419575e+01
-2.871235612831765760e+00 1.285490642029440966e+00 2.627585744399538825e+01
-5.860370425388981452e+00 9.661316555915903104e-01 2.710558542921801717e+01
-6.037933982362889473e+00 4.966040834595186304e+00 2.453036717835706426e+01
-1.204622313371413256e+01 5.133786391177151742e+00 2.441547528438702486e+01
-6.237683172675781762e+00 7.981750351474529381e+00 2.270034454878242514e+01
-6.405002240968337368e+00 7.942299803327967922e+00 2.272641217314184559e+01
-9.662823825881831752e+00 7.722012279502315835e+00 2.194358119253929829e+01
1.631272930134193277e+00 -3.696527363362084539e+00 2.476652712212648311e+01
-7.931021853497412621e+00 5.350928138872352413e+00 2.407022099264619541e+01
-5.810178216970739662e+00 7.744080295363017896e+00 2.308511428090596240e+01
-7.284534364014767505e+00 7.626285332044577814e+00 2.281850032149289476e+01
-7.962769220547036397e+00 5.622960166513555791e+00 2.383402189325800080e+01
-5.908641115056233239e+00 7.371216016824552852e+00 2.324520240723602171e+01
-5.393857597557659034e+00 7.243987615730381080e+00 2.337166193954966786e+01
-9.152533014110385778e+00 7.041742196146582700e+00 2.269197425757439390e+01
-7.180914078064197348e+00 5.926560622048510751e+00 2.399552020557403864e+01
-8.911096792495197150e+00 6.943265520223387277e+00 2.288648431782506876e+01
-7.784030982418940425e+00 -6.406340815739123506e+00 2.815516991091360666e+01
6.307570843261987470e+00 -5.793311100910009337e+00 2.013263448537581013e+01
8.278219018558631959e+00 -1.689896002675340236e+00 2.035306825133872977e+01
-6.560390048880010205e+00 6.742613866204569817e+00 2.343267749680283174e+01
-8.872551960853611419e+00 6.266181572620323159e+00 2.331812689638364589e+01
8.233632388648635114e+00 -5.193700705376842031e+00 1.899195820335350859e+01
-6.236285988252518564e+00 6.573379506314400267e+00 2.344128683131836510e+01
-2.915625840666578039e+00 3.836785172389952425e+00 2.494164445659697193e+01
-6.401500368881909431e+00 6.473703099617064360e+00 2.363728589405838321e+01
-6.653476844594978346e+00 4.975710214419274635e+00 2.450138035313519680e+01
-6.309946142325500773e+00 6.436694255194434611e+00 2.370325766266958567e+01
3.549344507706409413e+00 -4.456979171409765073e+00 2.363210377082609881e+01
7.590262966580412218e+00 -1.243672303303970716e+00 2.160224022363397722e+01
-5.482801359363334015e+00 7.017168170310745801e+00 2.350448788497165609e+01
3.314416962399663547e+00 5.773248570525873369e+00 2.307639835484513569e+01
-5.581823265900686337e+00 7.055976412294594269e+00 2.345519589825000395e+01
2.365769103092191461e+00 5.628034371384787349e+00 2.327279393050316969e+01
-1.841747284939331486e+00 3.866386109888783285e+00 2.458806096576661204e+01
-4.523376428606497690e+00 5.742410137208115550e+00 2.413247443295668759e+01
-9.426829762741361307e+00 7.399997920659059147e+00 2.234576950270994189e+01
-1.079627046019197145e+01 4.105497335726967734e+00 2.518740436871032173e+01
3.215835390149705653e+00 -4.348557628811435372e+00 2.400363968481660848e+01
-4.561088713629892766e+00 6.264371212780862841e+00 2.379989637926949442e+01
-4.500326381051438673e+00 3.845619245213526494e+00 2.510317319462801322e+01
-5.686949292459012817e+00 6.887113007332636982e+00 2.343475363732991212e+01
-2.206625458328879130e+00 3.622306018777130543e+00 2.478229407177883203e+01
-4.919119496281057380e+00 1.853074793051802116e-01 2.676280168346383448e+01
-6.854656893685867836e+00 5.194239852371926425e+00 2.421759238732059671e+01
-8.942020297381731098e+00 6.690454842073779496e+00 2.309610126118262130e+01
-4.710326573932318794e+00 5.040034507367399996e+00 2.446874226683906173e+01
-5.817264800772822930e+00 3.666606776755628072e+00 2.525081096015050619e+01
-6.387734439605982750e+00 3.675043510723502660e+00 2.560667967081838015e+01
2.810811619176275755e+00 -3.866292627909129642e+00 2.371367738988309171e+01
-2.649954246500790145e+00 3.458841778341593010e+00 2.512070066756792741e+01
2.711559455925190765e+00 -3.877000499175120574e+00 2.380564502225140444e+01
8.580569225341657003e+00 -3.536047747837361310e+00 1.980629806300087026e+01
-3.378987372107716602e+00 3.273563831663414359e+00 2.532661963577447750e+01
-4.897677124996570264e+00 2.521611352650936499e+00 2.612923995300173630e+01
-4.038674388924024861e+00 2.930442356007983751e+00 2.572283009551669153e+01
-1.373149784262909989e+01 2.813369652121356257e+00 2.649524747289970961e+01
2.251181477351216653e+00 1.918317762283799688e+00 2.368437517692505168e+01
5.476919965517678790e+00 -4.658259243731560417e+00 2.126781855934495269e+01
-5.204632869336153433e+00 6.414859375765913363e+00 2.370659328401870170e+01
-6.272191017132008106e+00 5.339593412043432963e+00 2.416328054364362288e+01
8.357264864571275709e+00 -5.411412025799417158e+00 1.736480127400015405e+01
5.262321309702937988e+00 -4.427120627276512899e+00 2.135497652779786648e+01
-6.787961291553234133e+00 3.736242531265646871e+00 2.555796137315697791e+01
-6.588152575253377385e+00 8.126219389683750904e+00 2.239976032047792742e+01
-6.891893150654746947e+00 8.120391739714065693e+00 2.236721471763366864e+01
-7.424335981104532856e+00 8.095032784982972629e+00 2.227252697766510892e+01
-6.577636669823246685e+00 8.004117860503265902e+00 2.257018830653760588e+01
-6.193810906969943630e+00 7.943388761164220213e+00 2.276877105023826076e+01
-8.089869121373380878e+00 7.714671010907304449e+00 2.254749583243975763e+01
-9.424882796704761034e+00 7.591779020429433089e+00 2.212999454984520042e+01
-9.812611296546984718e+00 7.482920345641206339e+00 2.215361407354569323e+01
6.955356327699415253e+00 -7.081442372542276154e+00 1.767401611188741128e+01
5.516296609087240732e+00 -7.850107232613703800e+00 2.002161062893885557e+01
-1.027479902416789237e+01 -1.085406453020877748e+01 2.984291507991749981e+01
-5.915610309436032388e+00 7.502489878519130073e+00 2.315519757779050991e+01
7.043870108026474952e+00 -6.856041659914486885e+00 1.800588670115344669e+01
-9.840278107381191575e+00 -1.035301092254303157e+01 2.956041482698777045e+01
7.050523478614143080e+00 -6.686460164773718517e+00 1.839596664656317415e+01
8.319715280137353730e+00 -6.196399797285082833e+00 1.681617368930575651e+01
-9.496428470618484496e+00 -9.852834957476087396e+00 2.978496563956882071e+01
-9.718775567942287807e+00 -9.820672703183310759e+00 2.995617425861109595e+01
7.651498792215684297e+00 -6.238589338565891040e+00 1.757203457299315019e+01
7.399032461977667730e+00 -6.317194623473868731e+00 1.800017657803287108e+01
8.120472039379579954e+00 -5.950612068289144574e+00 1.723568081013051412e+01
-5.943363283502895555e+00 7.343011624245363578e+00 2.325444396680380521e+01
7.734469389128153516e+00 -6.016343830464085940e+00 1.763283873133719482e+01
6.887527478268722803e+00 -6.435313069374067219e+00 1.929267622138988258e+01
-1.069551359602335516e+01 -9.218854967279888513e+00 2.990021151812737088e+01
7.940141171261044128e+00 -5.915775783509885422e+00 1.777364731993993274e+01
8.122157226282245901e+00 -5.704106187047524479e+00 1.752823285138878617e+01
8.340589978733586207e+00 -5.584364426805755066e+00 1.709065034607392519e+01
-1.050673259670744031e+01 -8.792360123770933455e+00 2.986640117929669103e+01
7.998889894582134730e+00 -5.741150437216607116e+00 1.801159044088776184e+01
-9.623849461893462021e+00 7.121936297172402064e+00 2.256728900353754952e+01
8.365258151438837331e+00 -5.549838057138209990e+00 1.764435515188123205e+01
8.294165682206195100e+00 -5.405813639784559754e+00 1.728276629186726865e+01
8.019564302552213420e+00 -5.484580625284131372e+00 1.815543209521674584e+01
-1.024044749445541846e+01 -8.126277775918300250e+00 2.984526771548319957e+01
-5.889633465407293933e+00 7.222756271337996026e+00 2.329021861886959854e+01
5.161508227095001899e+00 -6.013779258951363005e+00 2.080522418312961364e+01
-6.281243000923927511e+00 7.164454238115913753e+00 2.328723169797984127e+01
-6.034993796581872516e+00 7.114473330986113453e+00 2.334502649989082101e+01
4.027804099011415673e+00 6.467144514392574095e+00 2.225386306517432544e+01
-5.892402663356675951e+00 7.033497912729150592e+00 2.330480111909008301e+01
8.225428378980433664e+00 -5.318855996755018190e+00 1.806602926005212950e+01
-6.998529259112585166e+00 7.055504687141315401e+00 2.329530294937051238e+01
4.984938371844815030e+00 -5.452648661630886018e+00 2.006244392173923785e+01
8.210401735346763985e+00 -5.224612966769355715e+00 1.893960881543981145e+01
6.289290378395849146e+00 -5.306128494248847360e+00 2.115056945451405923e+01
5.812427865511947012e+00 -5.027693391757044772e+00 2.125484765281220234e+01
6.417796943404614041e+00 -5.003551854677596111e+00 2.137121103265533506e+01
6.698667583064845665e+00 -4.844647176189428528e+00 2.113662843957500925e+01
3.075496023287752845e+00 -5.164935673800941984e+00 2.411982366918933351e+01
8.478381427541677340e+00 -4.393961325348088920e+00 1.949903032944998316e+01
-8.024855101886066322e+00 6.929318270439084770e+00 2.323981317329268137e+01
-6.279514775932300452e+00 6.842095693464337103e+00 2.329002063486359475e+01
-5.306935676446441263e+00 6.783180115178044645e+00 2.357896188949833416e+01
-5.065492212560438468e+00 6.751957432167944084e+00 2.369354936190215355e+01
-6.592622974970571370e+00 6.710245258923988487e+00 2.346657629610800910e+01
-5.477974164130859691e+00 6.568594545808520202e+00 2.372894445343412073e+01
-7.383151877077792413e+00 -4.844728629720869151e+00 2.796063797565113873e+01
-7.738453644439536205e+00 6.560391188251744055e+00 2.354129144656338113e+01
-8.464313540112321732e+00 6.475969389514841801e+00 2.320436140147800330e+01
-8.503919187671860058e+00 6.377157302454162568e+00 2.330596501395540443e+01
-6.415816040486172156e+00 6.337628007715093936e+00 2.376736397611701435e+01
-8.155215392165635180e+00 -4.673842500214192341e+00 2.846513607908056542e+01
-7.973637341879221907e+00 -4.587187078601579593e+00 2.838678890045812153e+01
-8.844359268777397531e+00 6.259256659041005477e+00 2.333144698783130977e+01
-7.218780343108590181e+00 -4.495304921300608214e+00 2.823685846744333716e+01
-8.254718284227170244e+00 -4.445281166714255328e+00 2.854206234380016483e+01
-6.880624847241493036e+00 6.143304339741702869e+00 2.375589032992663974e+01
1.676011116540746526e+00 -4.058918719621696702e+00 2.448751378595100903e+01
-7.494676267513297852e+00 6.167428365645702293e+00 2.379719390524220657e+01
-7.176360384344250498e+00 6.106346073475350522e+00 2.384224530023489663e+01
-7.932378933303695590e+00 -4.213375407802590900e+00 2.851912939912678269e+01
-7.239282781988857884e+00 5.894279990540356451e+00 2.403701844422744216e+01
-4.250182667541637649e+00 5.612478370553357188e+00 2.421832135408757836e+01
-6.043014068123685689e+00 5.621902359481243394e+00 2.410494025769840576e+01
4.735630200343031726e-01 -3.915185905265769595e+00 2.563641514121191634e+01
5.093536197196247173e+00 -3.539706156007023985e+00 2.203286125026254183e+01
8.683876223704899644e+00 -3.235147003450458136e+00 1.916703328908243975e+01
-6.571260046654029630e+00 5.414789389855248380e+00 2.405270434211178099e+01
1.632522635441666425e+00 -3.686174059527734581e+00 2.477827734080864630e+01
-5.900435687671429896e+00 5.335044702614194279e+00 2.432221347602013850e+01
8.629767977344036112e+00 -3.050532139227140949e+00 1.892040071430818315e+01
1.634955650766517499e+00 -3.551671496765474334e+00 2.479180373472382826e+01
-5.935853992385856870e+00 5.095518124319229791e+00 2.445404415717699820e+01
8.486560827138653451e+00 -2.919631020681251687e+00 1.917211849433108739e+01
-4.376576696191747828e+00 5.002951522551372321e+00 2.449306655029451463e+01
-5.734605428313978237e+00 -3.345173040452517288e+00 2.653595588286154694e+01
-5.613767803671246170e+00 4.900197411359634714e+00 2.452626968102250160e+01
5.174550676178194308e+00 -3.057890777961196349e+00 2.264957119625778148e+01
-5.974248585165351066e+00 -3.158094412215663560e+00 2.693303397737796345e+01
8.664089706994110074e+00 -2.673635981906513859e+00 1.932583287076768386e+01
8.410574168047466159e+00 -2.575556941830284163e+00 1.946088100715508418e+01
-3.546860127978122446e+00 4.579671427899911329e+00 2.482659520652986274e+01
-6.403088902123196924e+00 4.605665206161792646e+00 2.466128542460290518e+01
